ply
format ascii 1.0
comment PCL generated
element vertex 913
property float x
property float y
property float z
property uchar red
property uchar green
property uchar blue
property uchar alpha
element camera 0
property float view_px
property float view_py
property float view_pz
property float x_axisx
property float x_axisy
property float x_axisz
property float y_axisx
property float y_axisy
property float y_axisz
property float z_axisx
property float z_axisy
property float z_axisz
property float focal
property float scalex
property float scaley
property float centerx
property float centery
property int viewportx
property int viewporty
property float k1
property float k2
end_header
0.0041253911 -0.0066144639 0.081219219 101 95 64 255
-0.018204775 0.069994941 0.023981649 136 146 94 255
0.014941953 0.079669207 0.030364988 113 115 90 255
-0.029394966 0.064600483 0.02035336 136 137 93 255
0.0093612522 0.077727795 0.028761866 126 126 90 255
-0.002256562 0.0090725012 0.06008096 105 106 46 255
-0.029946461 0.063246422 0.018387891 143 145 102 255
0.01041911 0.076771766 0.026592014 126 131 86 255
-0.0033793747 -0.011692842 0.072641775 104 100 55 255
0.0028373543 0.0069456822 0.063649327 93 93 40 255
-0.0056807771 0.071420476 0.020707432 146 150 104 255
-0.0016535716 -0.011690455 0.071141645 112 104 56 255
0.0027377114 -0.010342414 0.071760185 99 91 50 255
0.0020393273 0.0054168678 0.05963726 95 92 45 255
-0.001537933 -0.011798332 0.070654675 113 105 54 255
0.0044338037 -0.0060638548 0.069027096 93 87 40 255
-0.024395689 0.060963105 0.014944904 141 144 87 255
0.013664374 0.075075403 0.022725064 117 123 84 255
0.00474176 -0.0043735527 0.064837262 98 94 46 255
-0.0080225887 0.014618764 0.045926172 145 145 104 255
-0.029352099 0.058350623 0.014514962 141 143 92 255
0.015638923 0.077153191 0.020612312 104 104 68 255
0.016701754 0.078817099 0.018572627 130 120 85 255
0.0047063492 -0.0059776646 0.070309326 103 97 75 255
0.0043985257 -0.0037510735 0.06185358 89 82 40 255
0.0018122401 0.00043442426 0.057406083 94 90 40 255
0.0055192336 -0.011658272 0.067075789 116 106 79 255
0.007552918 0.070755795 0.015745871 124 131 84 255
0.0040869513 -0.010648651 0.063255891 95 99 47 255
-0.027289838 0.0539346 0.010180792 150 147 91 255
0.014960685 0.075149447 0.016953293 109 110 75 255
0.016089689 0.073677227 0.013963118 111 116 75 255
-0.002789516 -0.011074265 0.058142427 106 96 71 255
0.004480103 -0.011226427 0.061078113 97 97 62 255
0.0043551521 -0.0039432389 0.056758985 98 91 44 255
0.0015982124 -1.0470394e-05 0.054336965 88 84 39 255
0.013076939 0.072278589 0.014517153 121 125 78 255
-0.024531029 0.053483304 0.0092657655 155 156 96 255
-0.0092046838 0.058444511 0.010873923 165 162 105 255
0.0063485694 -0.008033732 0.057736676 103 98 71 255
0.0022148658 0.0077379621 0.045684941 98 96 47 255
-0.024631314 0.051890235 0.0075043822 148 150 93 255
0.0043179425 -0.0039396384 0.059619762 97 91 55 255
0.0028184736 0.0062333192 0.042694047 96 95 40 255
0.0037656354 -0.00017667608 0.046393976 97 93 46 255
-0.023678597 0.049072068 0.0045899553 146 147 90 255
0.0039418335 -0.008280199 0.051453337 98 96 61 255
0.0079740975 -0.0093807504 0.05112835 101 96 65 255
-0.021166138 0.049714152 0.0045352662 146 144 90 255
0.0062502818 -0.0068726693 0.046957579 102 96 71 255
-0.0010928237 0.020761568 0.026034914 154 149 93 255
-0.022894677 0.046325281 0.0017726114 156 155 95 255
-0.00095564639 0.057051931 0.0052470053 167 165 116 255
0.0034800279 -0.0002900348 0.038117394 95 91 49 255
-0.023190685 0.044671617 -0.00068031729 153 153 93 255
0.017545726 0.065297283 0.0042000553 157 153 105 255
0.019778304 0.066594422 0.0045936974 160 155 119 255
0.003125719 -0.0016628201 0.035276487 97 93 45 255
-0.018650241 0.045217462 -0.00073267624 155 150 94 255
0.019300707 0.064097501 0.0025358973 154 154 108 255
0.0041455105 -0.01117689 0.040390655 105 99 63 255
-0.020258199 0.043263923 -0.00264253 155 150 94 255
0.016454794 0.060845617 0.0011583464 155 156 99 255
0.0032031648 0.0040703374 0.028245695 96 92 41 255
-0.0060818968 0.047123149 -0.0034621572 164 159 102 255
0.0045085382 0.052857403 -0.002979598 151 153 94 255
0.017910244 0.058967743 -0.00016388584 159 157 111 255
-0.0014274204 -0.0071908734 0.035319664 98 92 52 255
0.0065441784 -0.01006585 0.035532922 109 104 81 255
0.0036889664 0.0022191587 0.024492942 100 98 44 255
-0.018528182 0.040329453 -0.0062022163 150 143 89 255
-0.0030050147 0.048544671 -0.0046954798 167 159 109 255
0.016257951 0.057961829 -0.0029333839 156 150 105 255
0.0072827814 -0.0062106024 0.030084554 105 96 65 255
0.00019001123 0.0090769045 0.014586964 113 108 53 255
-0.018167164 0.039345101 -0.0070842858 156 150 93 255
0.0034870147 0.0038828417 0.021730863 93 91 39 255
0.0017776913 0.0092987735 0.016123109 108 106 46 255
-0.0019072732 0.047421545 -0.0055750692 156 150 97 255
-0.002610256 0.046888046 -0.0071734153 159 157 96 255
0.0029364354 0.005528315 0.016478539 95 92 38 255
0.0030239853 0.0068640276 0.015076135 102 96 41 255
0.0026337595 0.01097586 0.014852148 140 132 77 255
-0.015541761 0.037923597 -0.0096320752 156 147 90 255
0.00335766 0.0033548372 0.016414359 91 87 37 255
0.0020222161 -0.011752641 0.024894662 113 105 79 255
0.0035134717 -0.0077966503 0.022543512 98 99 41 255
0.0035174075 0.0013281386 0.015073989 97 93 43 255
0.003598761 0.0055265236 0.012881653 102 98 42 255
-0.014663753 0.03505677 -0.013392107 151 146 83 255
0.0092966221 0.048490774 -0.010495283 147 146 84 255
0.0020874701 0.00027138786 0.013714321 101 95 45 255
0.0027339386 0.0092745852 0.0063676368 107 102 50 255
0.018157123 0.052404344 -0.01247596 150 148 87 255
-0.012597519 0.034299571 -0.016337072 151 147 83 255
-0.00012162421 0.041997019 -0.013869599 163 152 97 255
0.0017673294 -0.0092755239 0.016620595 97 93 41 255
0.0013756598 -0.00078771962 0.010832726 90 88 38 255
0.0029858651 0.0054645184 0.0056827227 100 94 35 255
-0.0070596635 0.014349684 -0.0057487842 152 147 113 255
-0.0055834213 0.018231437 -0.00553717 146 143 85 255
-0.011061396 0.035319712 -0.016359422 152 141 87 255
0.020781241 0.052361477 -0.013948056 149 147 89 255
0.002109264 0.0090378346 0.00050138088 117 114 47 255
-0.0063974466 0.020056557 -0.0089726839 150 144 86 255
-0.011721955 0.033319034 -0.018540822 145 141 81 255
0.010574979 0.044371929 -0.017479984 149 142 81 255
0.0122868 0.046077974 -0.01620831 146 141 78 255
0.0028366374 0.0055478164 0.0028107835 103 101 40 255
0.0087470775 0.043092024 -0.017866202 146 141 74 255
0.0035351652 0.0028971378 0.0027030676 90 87 32 255
0.0034622876 0.0018567611 0.0026587658 102 94 48 255
0.0026494688 0.0050835316 -0.0010135783 101 99 43 255
-0.0065193959 0.017561903 -0.013063176 145 142 79 255
0.014040262 0.044185225 -0.020207178 153 142 90 255
0.003485386 0.002066094 -0.0026768513 97 89 37 255
0.0031462961 0.0049758824 -0.0034736812 99 100 43 255
0.0029900323 0.0056228656 -0.0063321344 102 95 44 255
-0.010168212 0.022577474 -0.020560753 133 127 70 255
0.0028031967 -0.005470796 -0.0010754233 89 85 37 255
0.0027195835 -0.0030735885 -0.0019364315 98 92 49 255
0.003502016 0.0029674079 -0.0052694841 98 92 39 255
0.0032821333 0.006651768 -0.007374539 101 95 43 255
0.0030449233 0.0092524793 -0.010650303 110 108 39 255
-0.00056489417 0.033134777 -0.025952447 153 149 85 255
-0.0038014436 0.029503018 -0.030160123 146 140 78 255
0.00023058336 0.031067224 -0.029429806 152 148 86 255
0.00023209723 -0.010977527 -0.0040564146 99 89 56 255
0.0015074303 -0.0079776756 -0.0063609169 98 87 44 255
0.0039931019 0.0020739879 -0.011494209 98 90 39 255
-0.0093209399 0.026259633 -0.033316657 123 124 65 255
0.0018841159 -0.0027766791 -0.011783858 94 86 39 255
0.0023662145 -0.00035496335 -0.015563895 91 81 37 255
-0.0066602491 0.026126545 -0.034297802 130 130 70 255
-0.002293827 0.027655633 -0.033810101 146 144 89 255
0.0124792 0.034946728 -0.032817766 153 149 84 255
0.0016183527 -0.0059215897 -0.012097371 98 87 44 255
0.0025553654 -0.0029621203 -0.013799937 99 88 44 255
-0.0060237125 0.025399951 -0.035568934 134 130 64 255
0.0028691979 0.0021906169 -0.020841334 97 92 43 255
0.0084428992 0.032216474 -0.036674581 144 138 82 255
0.0019099284 -0.0052180844 -0.017421385 101 88 45 255
-0.0036712047 0.02383331 -0.038361721 136 133 64 255
-0.0026660142 0.023871765 -0.039290868 138 137 56 255
-0.0008155196 0.017211802 -0.038264759 131 132 70 255
-0.0014392836 0.014344115 -0.042803019 126 122 61 255
0.0097480472 0.02889997 -0.046560146 140 131 71 255
-0.0016891155 -0.0064513427 -0.030445894 101 90 48 255
0.0049973722 0.023671452 -0.047476619 139 136 72 255
-9.8612159e-05 -0.0051050843 -0.033440139 100 87 43 255
-0.00069660088 0.013627436 -0.045253277 121 113 58 255
0.0033078631 0.019370148 -0.049778067 144 134 80 255
0.0019992553 -0.0011141817 -0.036595754 104 93 45 255
0.0031914467 0.00097023835 -0.042053245 95 88 37 255
0.016867504 0.027964516 -0.054688904 137 136 72 255
0.0024782107 0.0071917786 -0.049423646 97 90 36 255
0.0036782664 0.016342619 -0.055216312 126 121 60 255
-0.0018788492 -0.0061428132 -0.042654984 99 92 44 255
0.0026271418 0.0048530265 -0.053017084 97 88 38 255
0.0027611991 0.011541171 -0.055642273 113 108 47 255
0.002895589 0.013158256 -0.056376383 113 107 48 255
0.010098104 0.02072384 -0.060346127 128 124 62 255
0.0053700786 0.015635701 -0.062009819 127 126 60 255
0.010835174 0.019762531 -0.063108906 131 129 66 255
-0.0038830712 -0.011676839 -0.049757101 113 103 74 255
0.0029206392 -0.0027346672 -0.056654058 103 94 47 255
0.014300004 0.022058936 -0.066320866 134 126 61 255
0.0030639286 0.002233637 -0.0620033 100 93 41 255
0.0044723516 0.0050131134 -0.064360991 100 96 42 255
-0.011843539 -0.012578994 -0.063037567 131 121 70 255
0.004907974 0.0017282455 -0.065228783 101 94 48 255
0.0073467907 0.0014368906 -0.066796027 101 96 44 255
0.005428059 -0.0013279938 -0.065427139 102 97 48 255
0.0073159942 -0.0027428051 -0.064230531 105 99 51 255
-0.0043301322 -0.011264021 -0.066551492 106 98 57 255
0.0084242458 -0.0010553547 -0.065900475 101 96 51 255
0.0037971782 -0.0014767409 -0.071340159 101 97 45 255
0.0053505432 0.0013130582 -0.070916034 99 97 40 255
0.0044413153 -0.0021336251 -0.072643608 100 95 45 255
0.0056670317 0.0041333972 -0.074813776 94 93 39 255
0.0069080549 -0.0029361662 -0.068506815 101 96 50 255
0.0050049117 -0.0035108891 -0.072409928 103 98 51 255
0.0053155208 0.0021339781 -0.07602948 99 98 45 255
0.0032634055 -0.0035713115 -0.075234637 100 100 46 255
0.0046069636 -0.0038050548 -0.07721214 105 99 51 255
0.014899006 0.015056854 -0.084018648 122 122 67 255
0.0069558527 -0.0049682059 -0.082793832 110 105 65 255
0.002639422 -0.0040570484 -0.088238649 104 100 46 255
0.0083494671 0.0063595115 -0.092557825 72 71 24 255
-0.37376636 0.27001667 -0.43724951 125 118 88 255
0.0086548142 0.0022112257 -0.099788018 99 97 49 255
0.0048204511 0.006527578 -0.10556735 95 92 44 255
0.0033866547 -0.0058181831 -0.09868177 110 105 53 255
0.0062022209 -0.0020365068 -0.10195333 107 102 49 255
0.0075820889 -0.0002110512 -0.10370897 101 93 54 255
0.0060593011 -0.0033076392 -0.10493223 108 101 53 255
0.0063029011 -0.0039020353 -0.10659247 108 102 57 255
9.3488954e-05 0.0048885508 -0.11560233 117 121 67 255
-0.00023552636 0.011433428 -0.12098463 91 86 49 255
-0.00053565716 0.016773729 -0.12465598 152 155 122 255
0.0063622096 0.00027051708 -0.11058626 97 92 50 255
-0.00062924623 0.01388176 -0.12453072 125 123 84 255
0.005123104 -0.0050073289 -0.11179722 102 97 51 255
-0.00082418742 0.0061321943 -0.12091944 87 82 41 255
-0.0011353642 0.0095463861 -0.12491181 82 79 43 255
-0.34750709 0.25733927 -0.44750857 163 159 119 255
0.0051707532 -0.0064424896 -0.11382361 99 97 52 255
-0.0020676889 0.010597618 -0.12964875 85 82 43 255
-0.3457301 0.26090491 -0.44868103 160 160 113 255
-0.0013598427 0.01262475 -0.13277939 113 109 77 255
0.0029023658 -0.00015911693 -0.12262832 92 91 47 255
-0.33650166 0.25883374 -0.4504728 168 169 119 255
0.0034594601 -0.0030654618 -0.12136923 94 93 45 255
-0.0013426659 0.0093661081 -0.13409407 90 79 36 255
-0.0013693827 0.011149114 -0.13720107 88 79 41 255
-0.0015601395 0.012001297 -0.14507693 96 84 36 255
0.0009037368 -0.0012297058 -0.13624831 91 89 42 255
-0.0010754708 0.0043055168 -0.14170219 91 88 38 255
-0.00087762903 0.007517179 -0.14479654 95 91 45 255
-0.32109538 0.24980269 -0.45365539 185 183 148 255
-0.000492536 0.0004911474 -0.14273687 95 92 40 255
-0.0015901485 0.004769688 -0.15272428 90 87 36 255
-0.0064947037 -0.011363314 -0.14572915 105 100 62 255
-0.0087646758 -0.013605623 -0.14980786 115 103 75 255
-0.005636028 -0.0099820774 -0.14932722 103 97 58 255
-0.33820841 0.21646826 -0.45871446 191 190 156 255
-0.0066185566 -0.010578336 -0.15408702 100 96 53 255
0.0010043755 -0.0010427558 -0.15673102 101 98 48 255
-0.31002074 0.23222819 -0.45918229 173 171 133 255
-0.0081903758 -0.012249129 -0.15582804 118 114 67 255
0.0018391525 -0.00023459876 -0.15921992 89 87 42 255
-0.0068935547 -0.0037909695 -0.16279359 95 91 44 255
-0.30647671 0.2314821 -0.46067145 153 152 113 255
0.0011300649 -0.0035025724 -0.16165094 83 80 38 255
0.0018299012 -0.0018691816 -0.16698411 95 90 41 255
0.00071591139 -0.0044399151 -0.16789328 95 91 46 255
0.0019480279 -0.0016106316 -0.17054994 95 92 44 255
-0.0046322839 -0.0081267674 -0.1713926 101 92 53 255
0.0019557886 -0.0031299242 -0.17061669 97 89 43 255
-0.32232448 0.19934894 -0.46571997 180 170 128 255
-0.32140955 0.20057815 -0.46677509 180 171 130 255
-0.31960508 0.19441447 -0.46615115 169 164 117 255
0.002945696 -0.0015886226 -0.18316083 100 93 41 255
0.001095531 0.0095719676 -0.19209515 91 90 53 255
0.0023222468 -0.0037487843 -0.18522362 100 93 39 255
-8.8835135e-05 0.0084505733 -0.19361997 95 86 41 255
0.00062385248 0.0093503799 -0.20763126 92 78 37 255
-4.1614287e-05 0.0078543555 -0.21029983 93 88 47 255
-0.0054595526 -0.011503885 -0.20228054 94 87 49 255
0.00065642688 0.0075787879 -0.21292488 95 87 47 255
0.00095119979 0.011109343 -0.21426119 100 94 53 255
0.0014924454 0.012543572 -0.21673477 139 121 82 255
0.00036387891 0.0058832071 -0.21854635 95 88 39 255
0.001053011 0.0088659953 -0.22076665 95 80 39 255
-0.0094525451 -0.010714488 -0.21919017 105 96 71 255
-0.2664879 0.18699943 -0.48131943 175 173 129 255
0.00071334746 0.0016025505 -0.22346668 91 93 43 255
0.00027693901 0.0064989231 -0.22874893 90 83 37 255
0.0014412506 0.00053597754 -0.22492172 93 90 42 255
0.0018968824 0.012069365 -0.23833388 139 117 77 255
-0.0053579733 -0.010902816 -0.22595288 93 84 50 255
0.0013026046 0.0029201112 -0.23494039 88 82 40 255
0.0021003354 0.010830564 -0.23871447 105 104 68 255
0.0022196239 0.011756672 -0.24131197 132 127 102 255
0.0012018131 0.0033311001 -0.23927076 90 85 40 255
2.0076521e-05 0.0073941178 -0.23929699 93 88 46 255
0.0017995406 0.0098086875 -0.24415258 95 84 51 255
0.0023536896 0.011216251 -0.24685298 104 99 66 255
0.0038339226 -0.0018054345 -0.23698017 95 90 45 255
-4.17009e-05 0.006228236 -0.24493788 94 84 44 255
0.0015755799 0.0078680273 -0.24551375 101 89 45 255
0.0011984715 0.0088324528 -0.24840142 102 95 53 255
0.003819867 -0.0029331245 -0.23760961 94 91 45 255
0.0045817075 -0.0017681518 -0.23896085 97 93 46 255
0.0019587846 0.0059716231 -0.24864866 95 88 48 255
0.0031991005 0.0007119826 -0.24594311 90 85 42 255
-0.0056555476 -0.01118611 -0.24390166 93 88 44 255
0.0020255456 0.010016954 -0.25591609 99 94 57 255
-0.0059109796 -0.012251215 -0.24874277 112 104 71 255
0.0039724484 -0.0012173676 -0.25064144 100 95 44 255
0.0017504385 0.0085443985 -0.26019272 96 88 49 255
0.0026596589 0.012801653 -0.26163447 131 127 98 255
-0.0035688123 -0.012326391 -0.2507818 99 89 48 255
0.0053233821 -0.0019538351 -0.25234592 100 94 43 255
0.00095554162 0.0048699356 -0.26072717 92 88 44 255
-0.0036346652 -0.012154261 -0.25347522 95 88 46 255
-0.0017230967 -0.0093642045 -0.25409901 104 101 62 255
-0.24122241 0.16355443 -0.49551591 146 146 108 255
0.005013614 -0.0023670294 -0.25772825 96 93 43 255
-0.006825747 -0.011843937 -0.25722131 93 86 57 255
-0.004515239 -0.011012377 -0.25896665 104 101 49 255
-0.23808506 0.16121677 -0.49688873 161 170 120 255
0.0053110737 -0.0035196268 -0.26046482 99 97 44 255
-0.0050889011 -0.012000771 -0.26221934 103 99 57 255
-0.0047367187 -0.0088156927 -0.26395419 98 93 45 255
0.0056155901 -0.0032872506 -0.26366499 100 96 43 255
0.0010924572 0.0054375506 -0.27274033 90 88 39 255
0.0014746524 0.010029374 -0.27697697 110 107 68 255
0.0011001881 0.0063717044 -0.27690631 88 84 41 255
-0.24200293 0.14290614 -0.49331605 151 153 115 255
-0.24119446 0.1536936 -0.50028217 166 169 130 255
0.0057927128 -0.0023686686 -0.26849744 101 95 48 255
0.0020463318 0.0082138758 -0.27934292 95 91 51 255
-0.23754889 0.15255634 -0.50104189 176 172 136 255
0.005829189 -0.0027585798 -0.2710427 101 95 47 255
-0.0074068131 -0.012991333 -0.27254507 103 97 61 255
-0.0020552874 -0.0099692289 -0.27581045 102 97 49 255
0.0034442311 -0.00054316455 -0.27754313 97 92 48 255
0.0011664592 0.007798431 -0.28763917 89 87 46 255
-0.22935106 0.14934047 -0.50230342 177 177 136 255
0.006558761 -0.002330231 -0.27868193 99 96 46 255
-0.00094021857 0.008370338 -0.29175875 99 92 63 255
0.0021981336 0.011709554 -0.29132867 148 143 85 255
-0.0050408756 -0.011623861 -0.27948952 104 97 53 255
0.0037556728 -0.001809957 -0.28415799 97 92 45 255
-0.0021010302 0.0080079865 -0.2982966 91 82 46 255
0.0010227542 0.010308562 -0.29798588 137 132 79 255
0.0024588145 0.013780473 -0.30043796 139 132 95 255
-0.21500143 0.13477096 -0.50636005 178 178 140 255
0.0019020811 0.010736881 -0.30867845 133 125 85 255
-0.21505517 0.13304797 -0.5080418 178 176 140 255
-0.00021028053 0.0058221049 -0.31068143 91 88 46 255
0.00053105317 0.0066563017 -0.31263378 90 86 43 255
0.0021902844 0.0097348373 -0.3144221 101 97 68 255
0.0027867714 0.010860769 -0.31409335 162 156 103 255
-0.20874196 0.13248037 -0.51038408 174 170 135 255
0.00034841429 0.0063735521 -0.31811145 88 84 42 255
0.0010874774 0.007384581 -0.32097265 88 88 45 255
0.0018475084 0.010026498 -0.32043728 138 132 97 255
-0.0009897016 0.0047392226 -0.32248172 90 93 46 255
0.00027148984 0.0059095896 -0.322543 88 90 43 255
-0.19878095 0.12833604 -0.51334572 178 175 127 255
-0.20000216 0.11982563 -0.50785464 153 156 105 255
-0.007094604 -0.013440328 -0.31721771 109 108 75 255
-0.0065465262 -0.0093484242 -0.32361913 98 93 47 255
-0.0068083154 -0.014238836 -0.31937763 117 112 90 255
0.0013025049 0.0080270302 -0.33396488 88 84 46 255
-0.0081329988 -0.016235145 -0.32131752 161 160 123 255
-0.0073227687 -0.015779974 -0.32340723 151 153 120 255
-0.00042142905 0.0057796068 -0.33661538 91 88 45 255
0.00064057298 0.0056269146 -0.3434017 95 94 47 255
-0.00055869017 0.0069529391 -0.34095761 102 100 47 255
-0.00030877255 0.0044409013 -0.34328613 90 90 46 255
-0.0078212377 -0.011055889 -0.3376292 93 100 48 255
0.00057492405 0.0060223765 -0.34665063 96 95 47 255
-0.0087708337 -0.013985323 -0.33538553 113 109 69 255
0.00028324127 0.0076731718 -0.34732541 98 100 58 255
-0.14975256 0.14736626 -0.52967703 178 168 128 255
0.00067423843 0.0059926189 -0.34847179 94 93 49 255
-0.0058928849 -0.0099859554 -0.34834492 94 93 48 255
0.001361439 0.0070504672 -0.35909382 104 100 52 255
-0.0081693847 -0.018558698 -0.34830496 157 155 129 255
-0.0064076912 -0.016470717 -0.35239998 100 96 73 255
-0.0052541597 -0.0097786207 -0.35715547 96 92 53 255
0.0017073369 0.011139376 -0.37376091 148 151 109 255
-0.12828103 0.13698252 -0.53857863 188 185 140 255
0.078634903 -0.077855073 -0.27159634 143 146 123 255
0.075571403 -0.086172491 -0.27162367 130 130 81 255
0.0796955 -0.081159033 -0.27375433 150 165 104 255
0.093755126 -0.065886021 -0.27731594 179 166 123 255
0.099700183 -0.065425284 -0.28047988 169 174 135 255
-0.11984905 0.13261722 -0.54519999 162 160 120 255
-0.16724525 0.085178182 -0.53466344 141 145 102 255
-0.16352077 0.08567144 -0.53667444 149 148 104 255
0.085613921 -0.096527815 -0.26713461 167 170 133 255
0.090635054 -0.079946056 -0.27653781 185 190 138 255
-0.16712764 0.078135625 -0.53723896 142 148 104 255
0.089362852 -0.1111124 -0.26102802 145 154 113 255
0.091603607 -0.11393291 -0.26036891 127 141 99 255
0.10250261 -0.10654379 -0.26440427 147 160 115 255
0.10335796 -0.10564239 -0.26451483 152 160 115 255
0.10199487 -0.11382726 -0.26222759 125 134 90 255
-0.10920257 0.11953144 -0.55437136 157 158 111 255
0.1056726 -0.11332839 -0.26319838 138 147 101 255
-0.10685841 0.11735046 -0.55725574 163 160 115 255
0.10317892 -0.15069243 -0.24517855 146 161 122 255
-0.090226158 0.12605141 -0.57030785 111 106 85 255
-0.10240157 0.10843858 -0.56463969 166 168 121 255
0.12578201 -0.13581191 -0.25390601 158 164 126 255
-0.093574159 0.11359265 -0.57161123 138 138 94 255
-0.095817171 0.10900642 -0.56998485 139 142 98 255
-0.0956681 0.10421108 -0.57073212 151 147 107 255
-0.092281945 0.11147127 -0.5727492 141 140 92 255
-0.10177229 0.093899846 -0.56885815 143 139 97 255
-0.097949676 0.10192038 -0.5709635 175 171 132 255
-0.10227191 0.091073647 -0.56684631 166 161 117 255
-0.09485019 0.10006799 -0.57126307 158 154 116 255
-0.10282599 0.089336559 -0.5683949 158 152 114 255
-0.090340234 0.1052504 -0.57464671 164 165 120 255
0.097904392 -0.19019292 -0.23813546 169 166 137 255
-0.092690043 0.095853731 -0.57397664 165 162 119 255
0.14240009 -0.16332236 -0.24321346 129 137 96 255
0.0021072933 0.00019958382 -0.45358214 82 82 39 255
0.0008265404 0.007638616 -0.45914963 108 105 73 255
-0.090039253 0.093776807 -0.57654345 172 172 130 255
0.10365174 -0.1983992 -0.23875058 148 149 115 255
-0.087188132 0.085935488 -0.57656288 165 162 115 255
-0.08651524 0.090275899 -0.57891583 175 171 126 255
0.0037064822 -0.00082376832 -0.46232045 84 80 39 255
-0.085731424 0.086107239 -0.57869422 171 169 125 255
-0.06963522 0.10252275 -0.58363551 142 140 92 255
0.15460984 -0.17212816 -0.24218398 160 171 132 255
-0.084373876 0.084379569 -0.57939398 157 149 113 255
0.1560138 -0.17558298 -0.24036436 148 154 120 255
0.0031228783 -0.0024386072 -0.46601608 88 85 40 255
0.0033902796 5.630916e-05 -0.47098413 84 84 40 255
-0.067274787 0.09404631 -0.58461034 167 164 121 255
0.0035489732 -8.3171763e-06 -0.47409549 88 85 45 255
0.0031919917 0.0015627719 -0.47846395 87 88 42 255
-0.063552059 0.093395069 -0.58652949 155 151 108 255
0.12590972 -0.21140446 -0.23593648 133 140 106 255
0.14213291 -0.20277168 -0.2380261 169 175 147 255
0.0015465645 0.0043572015 -0.4824346 107 104 55 255
-0.0634951 0.088666126 -0.58733761 155 152 107 255
-0.062123705 0.091877714 -0.58745944 157 150 109 255
0.0033641448 9.7063836e-05 -0.48103812 83 75 36 255
-0.06002095 0.090433434 -0.58961773 145 142 103 255
0.16673502 -0.18660791 -0.24139899 157 164 129 255
0.0037752846 -0.0003089481 -0.48294988 83 75 36 255
0.0028796447 0.0033821738 -0.48476776 93 92 51 255
-0.065074645 0.084765419 -0.58845764 155 153 114 255
-0.060440589 0.087692991 -0.59018004 151 149 103 255
0.12852812 -0.2200304 -0.23342364 127 136 99 255
0.15493309 -0.20250118 -0.23560998 133 142 105 255
0.0031485343 0.0013385392 -0.48734391 83 79 39 255
0.0019973414 0.004791168 -0.49332312 101 100 56 255
0.0011857627 0.0083460193 -0.49576586 160 153 102 255
-0.063601032 0.083415076 -0.58992255 156 152 107 255
0.13182011 -0.22159584 -0.23258032 132 142 106 255
0.13370612 -0.21846956 -0.23223491 137 140 111 255
0.0012349403 0.010598151 -0.49903718 143 138 99 255
0.0026131002 -0.0035896474 -0.48868641 75 76 36 255
0.0031636273 0.0007587499 -0.49278829 83 76 36 255
0.0029169405 0.0034809238 -0.49491176 88 86 47 255
0.0025586123 0.011672406 -0.50156695 145 137 100 255
-0.059761491 0.083573326 -0.59269094 145 143 98 255
0.13864259 -0.22130682 -0.23379287 153 163 126 255
0.0032694871 0.0031773276 -0.49672821 89 87 41 255
0.0016037738 0.0060667819 -0.5010401 128 125 78 255
0.001738294 0.0069918311 -0.50253338 110 108 74 255
0.0026173936 0.01004125 -0.50272709 142 140 94 255
-0.054448023 0.084563062 -0.59551871 135 135 93 255
0.17316502 -0.19586185 -0.24224563 150 160 123 255
0.0027477117 -0.0020190948 -0.49289331 85 78 38 255
0.0024079988 0.0027331985 -0.50077307 92 90 45 255
0.0008754218 0.005962295 -0.50262696 104 105 70 255
-0.058885079 0.079455182 -0.59474301 137 132 88 255
0.0029797284 -0.0029373043 -0.49628657 78 75 34 255
0.0023245988 0.0028340346 -0.50262064 84 77 36 255
0.0014538774 0.0091192108 -0.50635207 126 125 99 255
0.0013448959 0.010055883 -0.50825101 146 138 97 255
-0.057152886 0.079194948 -0.59682107 138 139 90 255
0.0028792368 0.0013767011 -0.50224102 76 73 29 255
0.0018265126 0.0057377792 -0.50786436 115 113 67 255
0.0015769759 0.013650967 -0.51501215 140 139 93 255
0.0028043753 0.00082398718 -0.50430554 80 73 33 255
0.0026798164 0.0018058992 -0.50724328 85 90 49 255
0.0013254462 0.0069050766 -0.51313919 138 137 84 255
0.15354706 -0.23201436 -0.2302606 134 140 111 255
0.0027030474 -0.0033169114 -0.50309759 86 79 39 255
-0.054820526 0.075245991 -0.60028267 141 142 90 255
0.0023090327 -0.0023265057 -0.50987637 82 77 35 255
0.0025789374 0.0040927208 -0.51439166 94 94 49 255
0.0025976365 0.0086455774 -0.51766628 153 152 111 255
-0.055819348 0.070145473 -0.5996297 147 143 98 255
-0.052634653 0.077020332 -0.60164642 133 128 80 255
0.00096435193 -0.0046010935 -0.50886476 81 83 36 255
0.0029725647 0.010180516 -0.52226287 147 146 105 255
0.1632289 -0.23706014 -0.22791626 132 139 108 255
0.16689779 -0.22842312 -0.23249421 118 132 96 255
0.1689447 -0.22594295 -0.2332307 122 134 96 255
0.19399004 -0.18962808 -0.25041714 145 148 119 255
0.0025454899 0.0016027815 -0.5161472 88 84 42 255
0.0032143081 0.0061918623 -0.52105319 132 131 85 255
0.0015153894 0.0049262173 -0.52256203 95 90 60 255
0.16156051 -0.2395577 -0.22710748 156 158 134 255
0.0018990533 -0.0021180683 -0.51464552 84 77 38 255
0.0041794879 0.011446966 -0.52817529 132 135 94 255
-0.053704474 0.067953363 -0.60431063 143 141 95 255
-0.049265843 0.081729159 -0.61477888 108 102 78 255
0.0011640945 -0.0045446926 -0.51573765 91 94 47 255
0.0025819885 0.0024276054 -0.52259517 85 79 33 255
0.0036514001 0.0083778929 -0.52513897 144 145 95 255
-0.0016706614 -0.012160452 -0.51492143 73 70 33 255
0.0014301827 -0.0051030391 -0.51816863 87 83 41 255
0.0017938865 -0.0012870901 -0.52155834 86 78 41 255
0.0026547881 0.00029080873 -0.52371019 82 80 34 255
0.0039913738 0.011495037 -0.53107059 153 146 102 255
0.18883856 -0.21580248 -0.23988266 139 149 113 255
0.0032851053 0.0016578562 -0.52528363 76 78 31 255
0.0034897132 0.0019146628 -0.52734375 79 82 37 255
0.19092084 -0.21427606 -0.2421772 131 140 103 255
0.0031195963 0.00020847982 -0.52757186 75 76 32 255
-0.0010490147 -0.01143931 -0.52334321 83 81 39 255
0.0013413867 -0.0050997906 -0.52715975 83 80 39 255
0.0045053801 0.0026214249 -0.53263247 92 91 50 255
0.0056109773 0.0056589968 -0.53448987 150 145 94 255
0.0040697018 0.0076505071 -0.53722537 148 144 94 255
0.0045348657 0.011093004 -0.53613055 149 145 102 255
-0.010310072 -0.015436249 -0.5250091 142 136 97 255
-0.0078713791 -0.014909269 -0.5243839 91 86 41 255
-0.04586596 0.064925268 -0.61307716 131 127 80 255
-0.042433005 0.068621561 -0.61889225 123 116 73 255
0.19168687 -0.22932732 -0.23755316 147 156 123 255
-0.011616369 -0.017788472 -0.52716231 149 143 106 255
0.0027157376 -0.0029637688 -0.53157175 76 77 32 255
0.0051037529 0.0040589995 -0.53664136 106 102 55 255
-0.044306766 0.063374564 -0.61511147 148 145 94 255
-0.042691704 0.071207061 -0.619681 115 114 71 255
0.15646292 -0.27089003 -0.22063175 140 139 106 255
-0.0096925022 -0.015678288 -0.53193027 130 123 77 255
0.0017891349 -0.01250373 -0.52915066 81 77 38 255
0.0018044533 -0.0051350468 -0.53339946 78 76 33 255
0.005106478 0.0038348562 -0.54017884 117 121 71 255
0.0059172465 0.0061554736 -0.54121935 122 118 77 255
0.0048694452 0.010619624 -0.54479837 150 145 103 255
0.16289324 -0.27055588 -0.21997559 159 159 132 255
-0.012544834 -0.018972205 -0.53150892 142 143 102 255
0.0031101005 -0.0065072649 -0.53261298 88 81 38 255
0.0061598802 0.0065814978 -0.54362732 141 138 85 255
-0.039495636 0.070590541 -0.62440908 122 116 80 255
0.0023509292 -0.011406334 -0.53502697 80 78 37 255
0.0027595265 -0.0018561655 -0.54190022 86 77 34 255
0.0036657015 0.00052745407 -0.54232144 91 88 40 255
0.0056713382 0.0038254387 -0.54769564 135 134 78 255
-0.0085570896 -0.017956005 -0.53630531 145 144 99 255
0.0015345877 -0.0039937668 -0.54407907 79 74 32 255
0.0054919282 0.0053460426 -0.55015993 133 134 74 255
0.0056004925 0.0095033776 -0.55390048 142 141 96 255
-0.039877195 0.058977347 -0.62006283 143 142 84 255
-0.010125703 -0.017851071 -0.54321158 146 147 100 255
0.0022890372 -0.010251569 -0.53988737 89 85 37 255
0.0028303387 -0.0079145003 -0.54290462 86 81 38 255
0.0043198364 0.0063896901 -0.55707294 144 144 91 255
-0.038643751 0.056451689 -0.62155902 138 137 84 255
0.15955879 -0.2822212 -0.22211906 158 156 130 255
0.16068058 -0.2827467 -0.22365434 163 160 133 255
0.19720142 -0.2450939 -0.23212515 144 158 121 255
0.0031475956 -0.013296397 -0.54297328 84 82 40 255
0.0028411588 -0.0041149431 -0.54793251 90 84 37 255
0.0045393398 0.0018940396 -0.55491954 99 95 48 255
0.19712701 -0.25265393 -0.23090006 148 158 129 255
-8.7597407e-05 -0.016992139 -0.54284203 92 85 47 255
0.0030542174 -0.011841344 -0.55033714 82 79 39 255
0.0029757256 -0.0041453117 -0.55538619 78 74 29 255
0.0048993537 0.0018431074 -0.55984473 102 94 47 255
0.0025527859 0.0078970622 -0.57011867 138 136 80 255
-0.035268012 0.058353018 -0.63048995 137 138 77 255
-0.034553491 0.063117102 -0.63495815 121 116 78 255
0.0036773877 0.0029399819 -0.56468576 111 108 61 255
0.003443527 0.0062084324 -0.56381798 156 152 91 255
-0.034196511 0.059838157 -0.63508445 118 112 64 255
0.0051110527 -0.0083560813 -0.55559397 86 81 38 255
0.0026357798 0.0068210191 -0.56996697 142 139 82 255
-0.029992748 0.06291534 -0.6393528 106 102 78 255
0.0034225108 0.003298027 -0.57261074 99 98 55 255
0.0022021076 0.0067586727 -0.57426131 149 144 90 255
0.0025533689 0.0086519253 -0.57595241 161 157 102 255
-0.033848152 0.047111582 -0.62974626 129 128 72 255
0.18837956 -0.28604564 -0.21650852 153 158 132 255
0.18189873 -0.28477934 -0.2242348 149 154 125 255
0.0031227423 0.0051915771 -0.57626927 121 118 80 255
-0.030932877 0.055616688 -0.63711011 128 126 70 255
0.18323055 -0.29011896 -0.22251722 149 152 130 255
0.002732967 0.0034629828 -0.57817429 98 103 53 255
0.0030736113 0.0052299625 -0.58069754 143 140 85 255
0.0047522457 0.010028405 -0.58058786 124 123 69 255
-0.031864416 0.045711976 -0.63343805 127 125 69 255
-0.028839134 0.057159226 -0.64193463 118 111 79 255
0.21003844 -0.26068088 -0.2324774 148 161 123 255
0.0032294774 0.0063244528 -0.58232534 128 127 83 255
0.17121501 -0.29784754 -0.2223358 139 140 115 255
-0.012958982 -0.020255284 -0.56840038 163 157 117 255
0.0033446467 0.0025124378 -0.57976174 99 100 50 255
0.0032405118 0.0033285744 -0.58313543 103 102 47 255
0.002687051 0.0068699545 -0.58822232 120 120 81 255
-0.027971718 0.051695775 -0.64281893 129 127 76 255
0.2205736 -0.25185969 -0.23849402 133 142 108 255
-0.0016267123 -0.019920425 -0.56231105 98 94 59 255
0.0028189002 0.0028448529 -0.58717811 121 118 62 255
-0.027916376 0.047036301 -0.64101559 138 136 74 255
-0.026146699 0.054162394 -0.64665592 111 103 75 255
-0.0023492454 -0.02211942 -0.56507587 105 101 76 255
-0.0013708873 -0.018749492 -0.56872195 98 95 50 255
0.0036827186 0.0020322925 -0.58558363 100 101 43 255
0.0040331027 0.0050938553 -0.58621061 143 143 80 255
-0.026468873 0.047324877 -0.64500046 133 129 71 255
0.21985281 -0.27234066 -0.22938584 144 155 124 255
-0.0031191772 -0.021611528 -0.56993437 150 152 92 255
0.22649354 -0.26627806 -0.2320803 149 163 126 255
-0.00057201181 -0.018950032 -0.56735516 99 97 51 255
-0.0056129051 -0.021926599 -0.57815111 144 141 92 255
-0.0013682665 -0.021055 -0.57244736 104 101 64 255
0.0015550675 -0.0065776878 -0.58614868 78 82 36 255
0.0042207642 0.0035212464 -0.5942831 121 120 62 255
-0.025690909 0.043405067 -0.64611042 135 129 68 255
-0.0064527476 -0.023015903 -0.57944614 144 140 85 255
0.0047971727 0.0035684831 -0.59842134 128 133 80 255
-0.023805991 0.046011817 -0.65109491 127 122 65 255
0.0070884796 -0.014504926 -0.56923002 106 100 59 255
0.0028219754 -0.018853681 -0.57984006 98 95 50 255
-0.025313757 0.041367155 -0.64707386 140 136 78 255
-0.02293741 0.046461802 -0.65248442 127 120 75 255
-0.023736756 0.039881151 -0.65122557 140 133 70 255
0.19241588 -0.3089208 -0.22108175 144 147 120 255
-0.021201953 0.04241411 -0.65598798 128 122 73 255
-0.021717362 0.04391567 -0.65550721 128 122 73 255
-0.0013700472 -0.01767184 -0.5922097 81 74 39 255
0.0027256263 -0.013112025 -0.59456396 85 80 36 255
-0.023474712 0.03278343 -0.65087336 144 136 74 255
0.0030489629 0.0039011962 -0.6111052 131 128 73 255
-0.021706685 0.036369186 -0.65533412 143 136 71 255
0.0033199592 0.0040201969 -0.61487967 122 126 69 255
-0.019585535 0.039605688 -0.65988922 129 120 76 255
0.24559163 -0.27626032 -0.2320808 142 148 119 255
-0.019765604 0.034301292 -0.65854299 142 135 73 255
0.20265067 -0.31918171 -0.21868329 146 149 121 255
0.21009123 -0.31474701 -0.21824022 154 159 132 255
-0.061832454 -0.01342495 -0.63780308 136 134 84 255
-0.0078932336 -0.017827408 -0.60504168 102 95 49 255
0.0019311802 -0.0058728331 -0.61108947 96 95 41 255
0.0029373029 0.0021344251 -0.61782134 106 104 42 255
-0.018297058 0.035112273 -0.66164875 132 126 70 255
-0.059432294 -0.012327569 -0.64242578 146 142 81 255
-0.0097733932 -0.020354824 -0.60725242 148 147 91 255
-0.0040610274 -0.01981415 -0.60534418 94 88 46 255
0.0032945899 -0.001339125 -0.61558765 101 95 38 255
0.0030653821 0.002885682 -0.62317187 129 121 53 255
-0.018035334 0.038353961 -0.66493106 114 107 83 255
0.20614301 -0.32355863 -0.2162527 144 146 117 255
0.0029404787 -0.012470739 -0.60852605 95 94 51 255
0.0027773613 -0.0015093856 -0.62004697 105 95 39 255
0.21565962 -0.31868145 -0.21814413 149 155 124 255
-0.0049364315 -0.018423961 -0.61309928 95 89 43 255
0.21702737 -0.32185355 -0.21858397 149 151 118 255
0.0015308568 -0.018526392 -0.6033051 120 117 64 255
-0.015694529 0.031988632 -0.66861069 125 116 80 255
0.00081867818 -0.014849531 -0.61776644 84 77 40 255
0.24469402 -0.30130595 -0.22481553 159 171 130 255
-0.013725038 0.027383877 -0.66876793 142 131 81 255
-0.045594338 -0.015671985 -0.64954656 158 160 95 255
-0.013078262 0.018437816 -0.66253328 154 147 82 255
0.0011261804 -0.011195766 -0.62835467 85 77 38 255
-0.0085591646 0.017613752 -0.66171849 152 142 80 255
0.25884935 -0.30016041 -0.22664176 146 152 118 255
-0.015245824 -0.02317019 -0.6300143 153 149 88 255
-0.0072580287 -0.019260572 -0.62726158 114 105 64 255
0.0048178276 -0.0058811479 -0.62872648 88 85 38 255
0.00082645658 0.003644926 -0.64806056 103 92 34 255
-0.011796624 0.020711197 -0.67036772 157 145 86 255
-0.012481839 0.02385862 -0.67147702 151 140 85 255
0.21356837 -0.34415689 -0.21487157 141 144 115 255
-0.050886214 -0.022473352 -0.65443873 112 104 77 255
-0.016318563 -0.023307906 -0.63355893 157 149 90 255
0.0032319436 -0.0067511671 -0.63448733 101 92 46 255
-0.0097503783 0.016053272 -0.66599214 164 152 88 255
-0.011685756 0.026477469 -0.67504632 124 115 81 255
0.26572266 -0.29505488 -0.22982948 148 152 117 255
-0.014530693 -0.023498284 -0.63519633 164 155 99 255
-0.008344491 0.016725911 -0.66939378 163 149 85 255
-0.045084048 -0.022157149 -0.65462124 149 143 91 255
-0.0022041211 0.0032838113 -0.6559757 113 105 49 255
-0.00066768657 -0.013081776 -0.64512724 90 76 39 255
0.22213681 -0.34703553 -0.21207823 151 153 122 255
-0.0019951956 0.0076860613 -0.66491818 160 149 91 255
0.21938835 -0.35304978 -0.21275388 174 177 148 255
0.2258753 -0.35025397 -0.21168907 141 143 113 255
0.22736861 -0.34921613 -0.21136893 144 145 116 255
-0.039413702 -0.02346121 -0.65880454 152 144 86 255
-0.0017563971 -0.016920673 -0.64378422 96 82 39 255
-0.0016982062 -0.014365332 -0.64965451 94 78 38 255
-0.00022470299 -0.0085008014 -0.65182853 88 75 35 255
-0.000137656 0.0025273985 -0.66254336 119 112 55 255
-0.042669866 -0.025272535 -0.66230345 113 108 79 255
-0.039841954 -0.024805354 -0.66054976 148 145 76 255
-0.0042793928 -0.022068875 -0.64261585 155 138 88 255
0.0014472166 0.0043073124 -0.66707057 156 142 81 255
0.0025444282 0.0053210086 -0.66979027 173 160 99 255
0.2367108 -0.34438184 -0.21478578 151 163 123 255
0.26775312 -0.30940139 -0.23051557 141 148 110 255
-0.038215961 -0.025882648 -0.6655401 142 135 80 255
0.00099288207 -0.0070563131 -0.65743273 94 88 37 255
0.0031427378 0.0019710786 -0.66871989 124 111 56 255
0.22165039 -0.35888919 -0.21282266 156 155 127 255
0.2669861 -0.31363827 -0.22941892 153 164 121 255
0.0042787557 0.00054414338 -0.6711725 114 101 46 255
-0.0075180707 -0.021579312 -0.65833735 151 134 84 255
-0.022154383 -0.022598909 -0.66783589 153 137 79 255
0.005691112 0.002890063 -0.67575288 162 145 86 255
-0.0075686974 -0.022497432 -0.65670264 152 134 77 255
0.27200893 -0.31939659 -0.23124178 136 142 106 255
0.0060876133 -0.0020906203 -0.6797688 119 104 51 255
0.23038632 -0.37050194 -0.21343388 168 172 139 255
0.24283229 -0.36437136 -0.21095844 166 170 143 255
-0.0030823173 -0.019826965 -0.67486215 116 102 57 255
-0.003481186 -0.016175197 -0.67700875 100 86 46 255
0.25034311 -0.35858572 -0.21452402 147 154 123 255
0.2741327 -0.32993507 -0.22957043 135 146 104 255
0.0020055259 -0.018366801 -0.67973328 107 89 47 255
0.0054229619 -0.012994187 -0.68031371 105 88 46 255
0.23103829 -0.37846595 -0.21200974 109 109 83 255
0.0023423834 -0.018396633 -0.67817223 108 90 50 255
0.0080295438 -0.0094028879 -0.68145448 111 101 50 255
0.24463744 -0.3724958 -0.21229877 168 171 144 255
0.28197578 -0.32726854 -0.23443426 125 133 103 255
0.0043812385 -0.014250325 -0.68477619 104 82 41 255
0.0068406733 -0.012139635 -0.68459487 105 96 48 255
0.25005043 -0.37349537 -0.21007328 160 160 134 255
-0.0021862769 -0.021299766 -0.68356907 116 95 57 255
0.0049159443 -0.013249772 -0.68933272 105 89 46 255
0.27803445 -0.34231097 -0.22581217 140 157 113 255
0.0052503766 -0.013014453 -0.69193351 107 90 50 255
0.00030447636 0.0015725619 -0.70758396 141 114 69 255
0.25321713 -0.3753072 -0.21035941 153 156 129 255
0.2573185 -0.36843756 -0.2148374 150 162 126 255
0.25897217 -0.37000546 -0.21427648 145 152 119 255
0.0028233519 -0.015963512 -0.69422936 113 100 53 255
0.28285176 -0.34988043 -0.22229251 144 157 113 255
0.0025518024 -0.01716988 -0.68978173 118 102 57 255
0.28613529 -0.34496289 -0.22700299 147 150 126 255
0.0001089396 -0.017478304 -0.70259416 116 96 53 255
0.27771318 -0.35927922 -0.2203386 147 153 113 255
0.0042631542 -0.016576784 -0.70283866 115 94 50 255
-0.0053515816 -0.020878242 -0.70748669 127 106 68 255
0.0017598206 -0.018296795 -0.70674741 119 96 55 255
0.0035623675 -0.018234717 -0.70982707 122 97 51 255
0.24359858 -0.38935152 -0.21889742 143 144 117 255
0.26827249 -0.3770147 -0.21613504 141 149 116 255
0.30317485 -0.34989849 -0.22852919 129 133 116 255
0.24509576 -0.39993629 -0.21443985 86 88 75 255
0.0063715437 -0.014714556 -0.72402978 129 112 58 255
0.30347267 -0.35133824 -0.22875763 119 130 109 255
0.28650248 -0.37472853 -0.21946347 149 159 124 255
0.3074967 -0.35784405 -0.22770488 105 110 90 255
0.24987862 -0.40165588 -0.22105564 139 144 115 255
0.24903814 -0.39856735 -0.22294949 153 157 122 255
0.26719022 -0.39496067 -0.21618086 133 145 110 255
0.25111619 -0.40975699 -0.21479516 83 87 75 255
0.26815301 -0.39680898 -0.21684362 149 157 120 255
0.26912451 -0.39672911 -0.21708445 152 158 122 255
0.30069438 -0.37127402 -0.22500484 159 165 141 255
0.30460846 -0.37071994 -0.22556841 149 158 131 255
0.29439676 -0.38901761 -0.22011752 148 156 124 255
0.25759238 -0.41911915 -0.21827717 103 115 79 255
0.31291944 -0.39371726 -0.22356696 153 158 127 255
0.2672247 -0.43020758 -0.21755092 109 111 94 255
0.26755396 -0.43432608 -0.21498501 92 93 79 255
0.26900065 -0.43318483 -0.21694981 116 115 90 255
0.2700744 -0.43601704 -0.21755996 106 106 90 255
0.27220884 -0.43933061 -0.21667062 113 113 87 255
0.27267429 -0.43853727 -0.21783487 124 125 101 255
0.27373278 -0.44012889 -0.21788082 123 122 102 255
0.28962645 -0.43146548 -0.22164826 134 142 112 255
0.28994986 -0.43595296 -0.22068536 144 150 118 255
0.29880869 -0.4266414 -0.22328216 141 156 117 255
0.27812469 -0.44623482 -0.21995716 101 103 78 255
0.29106227 -0.44092733 -0.21987075 141 148 117 255
0.33923146 -0.40717927 -0.22880289 114 120 85 255
0.30979609 -0.4326717 -0.22362235 144 151 122 255
0.28170472 -0.4526982 -0.22139461 101 98 76 255
0.28366306 -0.44502792 -0.22680116 152 151 123 255
0.31271946 -0.42957282 -0.22683072 155 159 130 255
0.28298858 -0.45303607 -0.22347976 127 131 107 255
0.31364259 -0.43482271 -0.22294654 159 170 140 255
0.31379464 -0.43291524 -0.22498566 154 159 131 255
0.31451541 -0.43476492 -0.22564505 145 154 127 255
0.31615466 -0.43642697 -0.2260159 142 155 123 255
0.30663067 -0.44599986 -0.22671989 141 147 114 255
0.32159039 -0.43218371 -0.2304398 153 158 130 255
0.28634033 -0.4588739 -0.22608219 110 112 82 255
0.29888493 -0.45366862 -0.22642785 152 153 122 255
0.30474183 -0.4474183 -0.22711501 143 153 116 255
0.28652796 -0.46029964 -0.22950789 108 106 85 255
0.31897792 -0.44157502 -0.22845393 144 158 124 255
0.30606529 -0.45099929 -0.22986978 147 150 117 255
0.32026502 -0.44320524 -0.23141479 148 155 122 255
0.30412015 -0.45623434 -0.2307156 143 144 112 255
0.34780881 -0.43161711 -0.23058911 154 157 132 255
0.31212413 -0.45261323 -0.23201446 147 152 120 255
0.3161138 -0.45466822 -0.23250921 151 160 124 255
0.31223935 -0.46223751 -0.23218764 156 154 125 255
0.29248643 -0.47246614 -0.23585202 108 105 86 255
0.34933066 -0.44095239 -0.23175398 157 160 132 255
0.32005692 -0.4580076 -0.2344932 155 158 127 255
0.31769943 -0.46803549 -0.2379726 155 160 130 255
0.30089143 -0.47603557 -0.24295196 156 156 127 255
0.31294939 -0.4721837 -0.23761617 145 149 119 255
0.33156392 -0.45735684 -0.24034676 163 173 130 255
0.31474447 -0.47371879 -0.23903354 150 152 124 255
0.30235231 -0.47832242 -0.24227813 154 157 132 255
0.30208498 -0.48163527 -0.24123456 178 185 141 255
0.35678706 -0.45927572 -0.23066962 161 164 126 255
0.30986872 -0.48178861 -0.24397334 164 167 139 255
0.31839666 -0.47834787 -0.24151523 151 151 123 255
0.32092425 -0.4773562 -0.24309509 144 150 121 255
0.35976565 -0.46402124 -0.23239689 146 153 111 255
0.36064455 -0.46366677 -0.2328199 159 158 119 255
0.36598581 -0.45940843 -0.23474632 114 109 85 255
0.35659093 -0.468584 -0.23369594 150 151 112 255
0.35850602 -0.46787265 -0.23358534 152 157 125 255
0.36127797 -0.46456885 -0.23317938 153 160 123 255
0.35991159 -0.47135577 -0.23488843 147 151 111 255
0.31523359 -0.48778459 -0.24714445 158 160 138 255
0.35906479 -0.47365174 -0.23593804 144 147 107 255
0.30760917 -0.5023362 -0.23914039 118 112 89 255
0.31061161 -0.49885061 -0.2409528 129 130 105 255
0.31063318 -0.50492096 -0.23605008 115 109 86 255
0.31568298 -0.49726155 -0.24347776 175 182 149 255
0.34387609 -0.48249564 -0.24089868 153 160 132 255
0.36129078 -0.47668225 -0.23714979 141 145 108 255
0.35020104 -0.48133633 -0.23955482 151 160 126 255
0.31541005 -0.50293827 -0.24150467 161 157 128 255
0.33134183 -0.48937121 -0.24825922 140 151 123 255
0.31408015 -0.50921738 -0.23837551 122 119 89 255
0.32607546 -0.4957135 -0.24561639 140 148 118 255
0.32666132 -0.49966124 -0.2465682 137 142 109 255
0.34284702 -0.49039403 -0.24781473 151 155 132 255
0.31873608 -0.51222807 -0.2418483 103 104 75 255
0.32289454 -0.50974607 -0.24371172 164 167 140 255
0.32832187 -0.50767475 -0.24722761 132 134 113 255
0.36741519 -0.48690984 -0.24655183 144 155 114 255
0.36578697 -0.49163172 -0.24813864 140 150 116 255
0.36038706 -0.49474129 -0.2501134 148 157 123 255
0.37095681 -0.49028561 -0.24798919 145 150 120 255
0.36823165 -0.49631515 -0.24712673 150 161 129 255
0.330558 -0.51922464 -0.25134125 151 155 129 255
0.33301851 -0.51767027 -0.25283691 143 148 118 255
0.34041092 -0.51169151 -0.2548261 129 136 105 255
0.33317173 -0.52510977 -0.25662425 135 142 120 255
0.33713517 -0.52673757 -0.25718525 135 139 118 255
0.37412566 -0.50931895 -0.25372687 141 151 121 255
0.33306646 -0.53634274 -0.26016071 125 122 93 255
0.34168395 -0.53037632 -0.25969008 137 142 122 255
0.35138828 -0.5266248 -0.25888029 136 143 114 255
0.35523334 -0.52524513 -0.25834438 133 144 114 255
0.3469238 -0.53250945 -0.26231447 147 153 129 255
0.34065539 -0.5410375 -0.26061839 171 178 145 255
0.34703675 -0.5344826 -0.2640363 150 158 133 255
0.36572114 -0.52900028 -0.26074865 141 150 119 255
0.35133004 -0.53689575 -0.26417002 155 165 137 255
0.36563948 -0.53122497 -0.26133451 142 152 124 255
0.36719492 -0.52928424 -0.26102647 126 139 105 255
0.36004707 -0.5341382 -0.26268169 132 147 108 255
0.36798725 -0.53051782 -0.26135471 140 146 118 255
0.36091071 -0.53481632 -0.26345584 136 150 121 255
0.35353372 -0.54056323 -0.26520309 143 149 122 255
0.36803958 -0.53337467 -0.26270267 146 156 125 255
0.36169082 -0.53746951 -0.26361558 135 147 107 255
0.36576891 -0.53681403 -0.26314858 147 157 126 255
0.36241576 -0.53950047 -0.26500481 144 152 119 255
0.35697901 -0.54314744 -0.26466826 118 126 103 255
0.35412094 -0.54659498 -0.26508918 146 151 115 255
0.37017274 -0.53845286 -0.26400587 146 150 122 255
0.35629675 -0.54850781 -0.26600233 140 149 111 255
0.37216797 -0.54027176 -0.26619563 131 143 110 255
0.35611066 -0.5552212 -0.26522946 144 145 117 255
0.3603166 -0.55050635 -0.26659146 128 133 102 255
0.37048015 -0.54448712 -0.26728544 137 144 113 255
0.35526586 -0.55741906 -0.26444152 159 163 132 255
0.35990638 -0.55429786 -0.26627898 126 130 95 255
0.39508304 -0.53226322 -0.26578915 127 137 100 255
0.39858854 -0.53137887 -0.26516041 117 127 97 255
0.39891261 -0.53200144 -0.26645699 137 142 120 255
0.36544958 -0.55025911 -0.26813576 131 139 106 255
0.371259 -0.54691446 -0.26763961 137 145 112 255
0.36793122 -0.55027664 -0.26905414 147 155 123 255
0.40055934 -0.53243935 -0.26711097 122 126 108 255
0.40088552 -0.53465641 -0.26909757 137 142 120 255
0.36713782 -0.55491096 -0.2709035 138 143 108 255
0.36936387 -0.5536114 -0.27037558 131 137 103 255
0.37713462 -0.54721272 -0.2725381 140 149 119 255
0.37762344 -0.54961586 -0.27283987 126 143 110 255
0.36899939 -0.55748606 -0.27069071 135 139 106 255
0.37818539 -0.55260658 -0.27184823 145 151 120 255
0.3790369 -0.55096966 -0.27309501 142 153 123 255
0.37857947 -0.54936534 -0.27341583 137 146 119 255
0.36712515 -0.5606004 -0.27058321 127 131 97 255
0.3803046 -0.55087566 -0.27397367 138 139 108 255
0.3737224 -0.55789232 -0.2718468 144 153 117 255
0.37302339 -0.56190479 -0.27249721 138 143 109 255
0.36074194 -0.57400739 -0.26932332 103 98 75 255
0.3720693 -0.56523585 -0.27414563 137 139 108 255
0.36370131 -0.57617015 -0.27049217 147 150 123 255
0.36787251 -0.57130682 -0.2746149 133 141 104 255
0.36417401 -0.57763577 -0.27283964 140 139 112 255
0.36618119 -0.57710844 -0.27367762 142 142 113 255
0.37485635 -0.56891882 -0.27691981 137 144 111 255
0.37483862 -0.57042712 -0.27755424 138 147 113 255
0.37679225 -0.56933892 -0.27781537 139 144 111 255
0.36646047 -0.57927698 -0.27599207 139 137 114 255
0.3684268 -0.57949018 -0.27721012 159 161 137 255
0.38314208 -0.57031953 -0.27868882 138 143 113 255
0.38801572 -0.56533617 -0.28072068 140 151 117 255
0.40971228 -0.5590151 -0.27079156 141 144 125 255
0.3659732 -0.58182448 -0.27913317 113 104 72 255
0.36923411 -0.5808059 -0.27929893 153 157 132 255
0.40996721 -0.56299907 -0.27105692 142 148 120 255
0.37043729 -0.58104825 -0.28088269 143 146 119 255
0.37734151 -0.5827828 -0.28485116 128 136 107 255
0.41257375 -0.57088161 -0.27489218 119 128 92 255
0.37584582 -0.58459127 -0.28717899 122 127 101 255
0.39116114 -0.57791567 -0.28535986 142 148 113 255
0.38994572 -0.58362132 -0.2885204 151 157 127 255
0.41491303 -0.57666725 -0.27951202 132 140 105 255
0.38994604 -0.58358705 -0.28919384 145 155 124 255
0.41688684 -0.57877517 -0.28013173 114 123 96 255
0.41813919 -0.58060062 -0.28156483 133 136 105 255
0.39091551 -0.58792287 -0.29243904 146 150 123 255
0.40525061 -0.58322531 -0.28872302 133 144 106 255
0.40374672 -0.59026647 -0.29274675 136 144 116 255
0.41117051 -0.59019601 -0.29097688 125 140 101 255
0.40083238 -0.59609544 -0.29502076 132 140 110 255
0.40618438 -0.60001397 -0.29562619 134 143 114 255
