ply
format ascii 1.0
comment PCL generated
element vertex 925
property float x
property float y
property float z
property uchar red
property uchar green
property uchar blue
property uchar alpha
element camera 0
property float view_px
property float view_py
property float view_pz
property float x_axisx
property float x_axisy
property float x_axisz
property float y_axisx
property float y_axisy
property float y_axisz
property float z_axisx
property float z_axisy
property float z_axisz
property float focal
property float scalex
property float scaley
property float centerx
property float centery
property int viewportx
property int viewporty
property float k1
property float k2
end_header
-0.02089202 -0.008351136 0.18838954 95 85 44 255
0.03026139 -0.059255626 0.14844364 135 142 114 255
-0.0031150132 -0.024922986 0.17191666 165 163 129 255
0.025516573 -0.061531257 0.14684203 119 128 83 255
-0.022414304 -0.0042085834 0.18413773 98 90 49 255
0.026430599 -0.054832708 0.14192624 139 145 116 255
0.025476445 -0.055889461 0.1429325 155 159 132 255
-0.023521753 -0.0060203336 0.18039058 101 95 54 255
0.022519797 -0.054548901 0.14132862 154 158 131 255
-0.0097336583 -0.020247985 0.167381 115 108 74 255
0.023419444 -0.057092421 0.14019006 154 157 128 255
-0.010791928 -0.017108705 0.1685178 109 101 59 255
-0.0098283123 -0.019734759 0.16618638 114 113 69 255
-0.0070197191 -0.021158364 0.16421945 114 108 82 255
0.022247784 -0.055941287 0.13892144 150 154 124 255
-0.0083169211 -0.023839567 0.1547896 138 159 118 255
-0.0074197017 -0.025348224 0.15144522 162 160 128 255
-0.0072946809 -0.025504217 0.14781104 157 155 125 255
-0.0067691896 -0.026800722 0.14490855 147 142 113 255
0.0105423 -0.046752028 0.12863392 153 152 128 255
-0.0092952661 -0.025630604 0.13586749 156 145 108 255
-0.0054620747 0.0086811148 0.13750027 164 164 130 255
-0.0058657527 0.0075998902 0.13687785 165 164 133 255
-0.019020392 -0.010424394 0.1430603 98 94 48 255
-0.0093922354 -0.015159417 0.13546222 103 99 51 255
-0.0059463978 0.0073864795 0.13404383 158 156 118 255
-0.01001795 -0.026428044 0.12824096 160 153 109 255
-0.009980673 -0.025526632 0.12547114 154 143 90 255
-0.010265812 -0.017949231 0.12403515 109 102 58 255
-0.010349464 -0.017402269 0.11941525 106 101 46 255
-0.0042328481 -0.03929292 0.10596023 145 147 110 255
-0.0094059557 -0.025385343 0.10863003 141 130 76 255
-0.0099826567 -0.017616116 0.10799793 108 98 48 255
-0.01046473 -0.021139681 0.1090848 139 140 91 255
-0.0095982589 -0.016548466 0.10390962 107 97 47 255
-0.0092708971 -0.015105277 0.10235269 109 99 52 255
-0.0096536726 -0.021564413 0.10084657 134 129 87 255
-0.009104412 -0.016074918 0.097574025 108 97 46 255
-0.0092044007 -0.023681249 0.09750393 141 138 74 255
-0.0079936739 -0.021050118 0.092910096 138 133 73 255
-0.00915852 -0.021572735 0.093479313 134 124 70 255
-0.0078467093 -0.020681888 0.083347291 125 117 61 255
-0.007496519 -0.023878496 0.08127299 113 104 48 255
-0.0094752945 0.0025042258 0.08599177 96 89 48 255
-0.022205822 -0.0071214773 0.09225294 105 99 50 255
-0.022133922 -0.009042792 0.091460899 103 99 49 255
-0.0092072748 -0.022132032 0.080177233 117 109 58 255
-0.022340484 -0.0070452355 0.09040533 100 97 46 255
-0.019588992 -0.00027985126 0.080516629 93 89 42 255
-0.022826817 -0.0066376477 0.084005632 104 98 52 255
-0.021285098 -0.00096601248 0.067297131 92 90 45 255
0.71077263 0.025490839 -0.43590313 97 97 78 255
0.71128052 0.021854226 -0.43665612 83 87 71 255
-0.024811763 -0.006601952 0.062289413 101 96 50 255
0.71095675 0.054110963 -0.43821937 126 125 90 255
0.71085823 0.050468672 -0.4388479 135 134 103 255
0.6806097 0.021263618 -0.42574582 131 128 101 255
-0.021081349 -0.0015926939 0.057059783 94 96 52 255
-0.024934759 -0.0063559748 0.058848042 106 105 52 255
-0.024260683 -0.0062212981 0.05145973 106 101 54 255
0.67486101 0.039530326 -0.42647168 117 114 86 255
0.67199016 0.037208978 -0.42559111 113 108 82 255
0.6700229 0.037047405 -0.42502809 114 111 83 255
0.66551811 0.022427324 -0.4246386 139 135 110 255
0.66342556 0.036410782 -0.42330793 111 108 78 255
0.66070819 0.034583915 -0.42192325 110 108 81 255
0.65953791 0.02182487 -0.42433685 137 133 108 255
-0.021080624 -0.0028049834 0.04743297 98 98 51 255
-0.023384891 -0.0054383688 0.048217315 103 102 55 255
0.65566117 0.033185799 -0.42081532 119 117 92 255
0.65442711 0.025760237 -0.42266154 133 130 103 255
0.64633024 0.032694537 -0.41927558 126 124 98 255
0.64604974 0.029329453 -0.42021286 129 133 100 255
0.59741306 0.05948827 -0.39300686 76 70 44 255
0.56414223 0.050632555 -0.37735152 79 70 45 255
0.50054258 0.027485419 -0.33779547 130 130 99 255
-0.019149266 0.0044862358 0.023907477 104 97 54 255
0.4943096 0.030080739 -0.33883101 133 135 101 255
0.49532247 0.02818187 -0.33843148 132 133 96 255
0.49452132 0.030967999 -0.34014779 139 143 100 255
0.48754108 0.031571422 -0.33836615 131 125 100 255
0.48830658 0.028090391 -0.33916414 130 127 93 255
0.48033661 0.030275363 -0.33962974 139 140 106 255
0.48192066 0.027278561 -0.33869129 127 124 102 255
0.5836826 0.0053086765 -0.41778648 102 101 77 255
0.41988617 0.014155883 -0.31185296 123 120 96 255
-0.026194211 0.00047646929 0.007811157 112 107 57 255
0.41482961 0.012177218 -0.31119514 137 136 108 255
-0.016065866 0.0069146818 -0.00054311147 93 84 48 255
0.4040564 0.019348908 -0.31261221 100 94 71 255
-0.021060901 -0.0095014274 -0.016779557 106 100 53 255
-0.021467954 -0.011128508 -0.019030647 106 103 55 255
0.38543618 0.011442427 -0.31498763 150 150 123 255
-0.022159832 -0.0092437966 -0.02090862 108 103 55 255
0.38466945 5.3085387e-06 -0.32308492 131 131 100 255
-0.023162898 -0.0071134344 -0.020808419 107 104 58 255
-0.022811528 -0.0098836469 -0.02277999 109 104 59 255
-0.02437249 0.0011738874 -0.020324014 61 48 13 255
0.37065005 0.0011948086 -0.31974649 131 133 100 255
0.37976483 -0.0034209006 -0.32530308 125 124 98 255
0.38132581 -0.0087366737 -0.3265304 122 118 90 255
-0.02421996 -0.0081848763 -0.029158285 103 99 50 255
0.35851157 -0.0037715621 -0.31905973 144 148 109 255
0.36028501 -0.005373504 -0.32039359 140 144 111 255
-0.025965292 -0.0029775165 -0.03258637 95 88 46 255
0.34337285 0.0032329299 -0.31558871 158 158 128 255
-0.023963775 -0.0067089116 -0.036306631 105 99 50 255
0.33986139 0.0012434162 -0.31600666 149 145 116 255
0.33764505 -0.0022484772 -0.31609222 146 148 115 255
0.36697724 -0.054614868 -0.33798051 143 143 111 255
0.34160483 0.014421899 -0.31036922 143 142 116 255
0.33681801 -0.0052227937 -0.31420219 132 131 107 255
-0.023266602 0.00053843856 -0.041622035 100 95 46 255
0.34863392 -0.068095297 -0.3353048 87 82 61 255
-0.023137946 -0.00077121705 -0.053780958 106 99 48 255
0.30327556 -0.0026490353 -0.30048564 128 128 98 255
0.31833127 -0.0119575 -0.30838859 160 160 128 255
-0.022290643 -0.0036075301 -0.056699026 101 94 48 255
0.29926643 -0.015616495 -0.30408886 154 154 124 255
0.29890227 -0.019730646 -0.30490786 166 167 142 255
0.30102658 -0.020828914 -0.30539784 154 151 120 255
-0.021122416 -0.0054811519 -0.064737126 99 91 43 255
0.2916424 -0.0010969751 -0.30386555 146 147 122 255
0.29667306 -0.0055865608 -0.30011898 149 151 114 255
-0.021799706 -0.0041222256 -0.066801526 98 93 45 255
0.28550294 0.002819065 -0.30460164 142 142 119 255
0.28572309 0.020093117 -0.30510208 101 92 67 255
0.27478951 -0.0012531243 -0.30895081 134 137 109 255
0.27706996 -0.00425997 -0.3115201 153 155 120 255
0.2780416 -0.0092648529 -0.30976763 145 151 121 255
0.2711257 0.01105595 -0.31140143 109 107 85 255
0.27284968 -0.072296485 -0.33143511 113 107 81 255
0.0020590909 0.011236224 -0.10749378 156 152 123 255
0.25611931 -0.0074998178 -0.31432322 116 113 93 255
0.25355959 -0.02031472 -0.31493336 139 137 109 255
0.25522348 0.0023559518 -0.31796923 102 103 81 255
0.25337133 0.00046767667 -0.31823507 112 112 86 255
0.23820524 -0.011596058 -0.31702453 130 129 101 255
0.2366388 -0.018798541 -0.31542987 138 146 107 255
-0.019727139 0.0013457052 -0.11951223 98 92 44 255
0.22004549 -0.021439139 -0.31705073 136 133 102 255
0.21656911 -0.019697044 -0.3173781 138 136 108 255
0.21674444 -0.075134188 -0.33176714 150 143 114 255
0.21411656 -0.017470513 -0.319002 141 136 110 255
0.21330339 -0.019460183 -0.31794259 137 134 106 255
0.2096003 -0.020202462 -0.31928888 141 138 110 255
0.20803677 -0.020061161 -0.31898084 141 138 109 255
0.20955768 -0.072125182 -0.33775735 139 133 103 255
0.20928475 0.00056535378 -0.32595736 136 129 96 255
-0.027182292 0.0010925718 -0.15400092 105 95 51 255
-0.02677268 0.0023886599 -0.15665813 100 95 52 255
0.17787109 0.0010641254 -0.32251841 150 146 117 255
0.17671749 -0.0019683205 -0.31959048 150 154 123 255
0.17011309 0.00034857169 -0.32001629 152 152 117 255
0.16028811 -0.0013758503 -0.32966197 136 136 105 255
0.15979278 0.0049486198 -0.32887089 127 125 103 255
-0.13983543 0.027878482 -0.091397315 142 148 114 255
-0.13503431 0.029627658 -0.087343834 130 141 101 255
-0.13416965 0.030853741 -0.087167323 125 136 98 255
0.15822449 -0.0014462285 -0.33225149 132 136 103 255
0.15842505 -0.0049295686 -0.33350289 132 140 103 255
-0.14529981 0.025459979 -0.094528005 143 152 121 255
0.15730065 0.0048317946 -0.33295459 121 126 97 255
0.15688096 0.00076146796 -0.33288765 126 128 95 255
0.15682425 -0.0037399344 -0.333747 118 120 90 255
0.15472464 0.0045372732 -0.33470246 117 116 85 255
-0.16192335 0.042380411 -0.073903739 137 155 112 255
-0.17841083 0.039025571 -0.069240749 159 166 137 255
-0.18047751 0.046976868 -0.067897126 143 150 119 255
-0.21514392 0.061807755 -0.046671998 154 158 126 255
-0.21186399 0.054577194 -0.044632588 142 155 116 255
-0.20511976 0.081934854 -0.046178669 142 147 125 255
-0.21529944 0.047775164 -0.04465802 135 148 110 255
-0.2219809 0.052264068 -0.041167609 129 141 103 255
-0.22733146 0.050848547 -0.043345992 170 176 150 255
-0.22029652 0.079291612 -0.045899794 155 167 130 255
-0.26720357 0.036401544 -0.027450627 152 161 133 255
-0.27085638 0.037602726 -0.026024064 149 163 130 255
-0.27137291 0.03464051 -0.027245661 151 168 131 255
0.12869495 0.026258934 -0.36837178 66 56 27 255
-0.28143042 0.082577676 -0.0082845492 129 142 107 255
0.12293416 0.027165655 -0.36911353 122 106 73 255
-0.30375865 0.046357498 -0.011599665 181 185 160 255
-0.30172387 0.043217991 -0.013253146 145 155 122 255
-0.31162748 0.046178281 -0.0097289933 166 170 142 255
-0.30574813 0.046360064 -0.011460484 183 192 168 255
-0.31410536 0.044521969 -0.0099101039 140 146 115 255
-0.31834269 0.08008562 -0.0080929166 185 190 164 255
-0.31253275 0.048349451 -0.008096165 168 178 149 255
-0.31853569 0.043580305 -0.0091245705 135 142 109 255
-0.32955426 0.053078119 -0.0023646231 175 182 149 255
-0.33502579 0.067094237 -0.00480534 184 192 169 255
-0.34100574 0.073099464 -0.0033567573 161 170 140 255
-0.32108399 0.098955154 -0.0018267806 137 143 114 255
-0.323475 0.097863019 -0.001977029 139 151 115 255
-0.32454872 0.095295459 -0.0031195048 143 150 116 255
-0.33829567 0.069579482 -0.004426463 184 192 171 255
-0.34663433 0.04947577 0.0041266526 157 163 130 255
-0.34990278 0.051862784 0.0052300408 160 164 141 255
-0.3323113 0.10007092 -0.0024800438 131 134 100 255
-0.3520152 0.050955329 0.0072455346 155 158 136 255
-0.35640919 0.053347565 0.0082004955 130 148 108 255
-0.36164325 0.053367402 0.012424656 149 157 130 255
-0.35904124 0.052957293 0.0092962673 141 152 121 255
0.079490215 -0.034282725 -0.40041518 140 142 106 255
0.081270173 0.015293349 -0.40011483 112 112 84 255
0.083009094 0.013073523 -0.40007091 115 115 86 255
0.073668003 -0.033435073 -0.40290833 133 143 104 255
0.079667151 0.014451791 -0.40298975 119 121 90 255
-0.38916174 0.072984591 0.020661941 189 197 174 255
-0.41274676 0.063973799 0.023967247 147 155 126 255
-0.45173192 0.04705039 0.047296178 145 157 117 255
-0.42665443 0.062566727 0.032379676 114 140 93 255
-0.43696582 0.11032012 0.042997792 155 160 138 255
-0.43913263 0.11095065 0.042841036 143 152 118 255
-0.44197753 0.11497048 0.043316912 104 112 79 255
-0.46754789 0.09354502 0.047670022 161 167 139 255
-0.4710052 0.098236382 0.047692355 165 175 151 255
-0.4729147 0.091454789 0.049110979 158 169 142 255
0.041471306 -0.0016229711 -0.44162238 134 143 83 255
-0.49726626 0.099596292 0.059420452 178 184 158 255
-0.48142222 0.074621812 0.048956748 132 147 110 255
0.034039419 -0.0019854568 -0.44612974 126 125 85 255
-0.48934549 0.074049339 0.052559357 139 148 120 255
-0.52700716 0.11100957 0.071486562 172 175 147 255
-0.55182105 0.060632311 0.096633747 145 147 109 255
-0.52521414 0.11655314 0.071724132 175 179 154 255
-0.55497783 0.061367702 0.098002456 154 156 123 255
-0.52614188 0.10832234 0.080232084 154 156 126 255
-0.5619812 0.060834143 0.09282276 97 95 75 255
-0.56921846 0.065823585 0.095583156 134 127 84 255
-0.54194671 0.07837069 0.077245176 156 166 131 255
-0.57368809 0.06771408 0.10412721 170 168 138 255
-0.54378629 0.089164495 0.06689924 125 146 105 255
-0.58158988 0.082494736 0.091515899 122 135 97 255
-0.57227427 0.11924022 0.086164922 172 176 153 255
-0.58275801 0.10041468 0.083475992 176 180 155 255
-0.58686024 0.10166092 0.083963074 175 183 153 255
-0.59572226 0.08581689 0.093857728 145 152 116 255
-0.59389812 0.092000172 0.089942098 144 156 120 255
-0.011079505 0.010939706 -0.49772647 71 68 27 255
-0.59850723 0.09152931 0.090866074 152 162 129 255
-0.010786947 0.0027503856 -0.52367991 89 82 41 255
-0.010608938 0.00046305731 -0.5294109 91 87 40 255
0.012023803 0.019183774 -0.55131316 86 79 60 255
-0.010940857 -0.0025639944 -0.53481954 97 93 50 255
-0.64924383 0.088239044 0.11765371 149 156 118 255
-0.010092143 0.00034791604 -0.54250348 87 84 35 255
-0.009407375 -0.0019745938 -0.55567169 92 88 36 255
-0.6543169 0.12471838 0.10389442 132 146 111 255
-0.013786973 0.011722971 -0.56611878 105 98 50 255
-0.014232645 0.011164654 -0.57007378 103 91 43 255
-0.014546167 0.0019552596 -0.57091302 115 104 50 255
-0.66624242 0.13395573 0.12026189 99 96 72 255
-0.014369924 0.012122352 -0.5736981 96 87 45 255
-0.014474025 -0.00046316907 -0.57673478 126 115 84 255
-0.015565431 0.0061934181 -0.57441121 114 100 50 255
-0.015108479 0.0083991177 -0.58212852 113 102 51 255
-0.014486233 0.0041802414 -0.5853402 118 105 53 255
-0.014364997 0.0021407194 -0.58938009 114 101 49 255
-0.67042178 0.1244241 0.10636141 123 136 101 255
-0.013696868 0.0073804446 -0.59792203 110 97 43 255
-0.013354996 0.0059831627 -0.59748453 114 99 47 255
-0.013911713 0.0023384579 -0.60106826 118 101 60 255
-0.014256701 0.0045986064 -0.60735321 117 102 51 255
-0.015032476 0.0070536919 -0.60896945 108 95 46 255
-0.012927804 0.0010381825 -0.61199677 123 106 60 255
-0.013645787 0.0030989237 -0.61638308 113 97 48 255
-0.013887472 0.0045248158 -0.62874353 103 91 41 255
-0.011154843 -0.00024236366 -0.63258338 115 107 50 255
-0.72521436 0.12516879 0.12119927 147 155 123 255
-0.0099889133 -0.0026792996 -0.64619452 112 100 49 255
-0.74971086 0.13116801 0.1301586 138 145 111 255
-0.74889386 0.12773907 0.13162152 133 139 111 255
-0.055243805 -0.039593648 -0.64788073 62 55 36 255
-0.056885369 -0.041153681 -0.64685869 66 62 43 255
-0.051525094 -0.046121132 -0.65488195 68 65 45 255
-0.054719344 -0.039351951 -0.6520015 61 61 34 255
-0.049118474 -0.045291465 -0.6626994 63 59 40 255
-0.045435149 -0.04481573 -0.66779113 63 61 39 255
-0.047813084 -0.041395586 -0.66789597 58 57 30 255
-0.035251837 -0.04666112 -0.68122041 79 74 54 255
-0.043360479 -0.038152885 -0.67373061 55 55 31 255
-0.038856074 -0.042385262 -0.67869681 54 54 32 255
-0.0406655 -0.036429118 -0.6794765 54 53 29 255
-0.033616766 -0.041451912 -0.68713874 54 53 28 255
-0.029507644 -0.046467494 -0.691836 74 69 49 255
-0.09852691 0.03854664 -0.59972668 100 90 63 255
-0.10589513 0.032642651 -0.59277534 79 72 46 255
-0.11136389 0.029755313 -0.58869094 57 52 22 255
-0.025486197 -0.044917922 -0.70281672 66 63 43 255
-0.11263247 0.028749902 -0.58846807 57 54 26 255
-0.16750818 0.023482952 -0.53252083 96 96 69 255
-0.024667606 -0.048694681 -0.69857836 95 89 57 255
-0.030154478 -0.040799093 -0.70017993 50 52 28 255
-0.023350215 -0.043955248 -0.71151274 87 88 50 255
-0.025660038 -0.040193539 -0.70902205 53 56 29 255
-0.063986644 0.026109714 -0.65082449 55 50 28 255
-0.023223203 -0.041141581 -0.714535 58 56 35 255
-0.019830272 -0.044905376 -0.72006357 75 67 48 255
-0.020234471 -0.047026705 -0.71871084 91 88 55 255
-0.054158911 0.040257711 -0.66053987 47 47 34 255
-0.055237915 0.034515399 -0.66159511 44 46 24 255
-0.063037366 0.019892056 -0.65718281 56 54 28 255
-0.053013779 0.043151755 -0.66407853 70 70 46 255
-0.021615017 -0.043445211 -0.71901375 73 69 33 255
-0.015391914 -0.04634596 -0.73078108 107 101 78 255
-0.053017363 0.038206417 -0.66684216 43 43 30 255
-0.052590046 0.03863864 -0.66857302 44 44 29 255
-0.054048244 0.031558502 -0.66838264 42 48 24 255
-0.018381696 -0.04241119 -0.72821569 72 66 40 255
-0.051362246 0.042660255 -0.67123377 48 49 37 255
-0.051808015 0.039586622 -0.67154264 43 44 28 255
-0.052699078 0.030509669 -0.67295521 39 52 22 255
-0.053893164 0.024957884 -0.67458069 48 50 27 255
-0.05003269 0.03948741 -0.67773736 48 45 28 255
-0.050275192 0.03697418 -0.67645508 44 46 27 255
-0.052297987 0.028972019 -0.67745751 45 48 26 255
-0.051716443 0.026823867 -0.67841351 46 49 25 255
-0.053365067 0.022186238 -0.67768884 49 50 28 255
-0.014936086 -0.043236565 -0.7386837 78 68 41 255
-0.045100171 0.048876483 -0.68123573 83 82 66 255
-0.049216472 0.036360133 -0.68064475 46 47 27 255
-0.049328189 0.027155448 -0.68360269 45 48 24 255
-0.048144884 0.040075708 -0.68357456 49 47 30 255
-0.045617472 0.03058188 -0.68983328 47 48 25 255
-0.050034225 0.021711458 -0.68681538 54 54 27 255
-0.046329796 0.042477924 -0.6875124 50 49 35 255
-0.043192826 0.033677716 -0.69493186 49 50 27 255
-0.046920098 0.021151174 -0.69283873 48 52 27 255
-0.044504613 0.042899508 -0.69228035 53 52 36 255
-0.038792487 0.035547812 -0.70214355 50 51 28 255
-0.044046395 0.022175539 -0.69793057 49 53 29 255
-0.04294705 0.019036312 -0.70127106 48 56 28 255
-0.036506929 0.02914362 -0.70811272 49 49 29 255
-0.039939448 0.024580408 -0.70531327 50 53 29 255
-0.0410841 0.020580728 -0.70470041 47 57 28 255
-0.033880115 0.037845273 -0.71124494 54 50 29 255
-0.037767865 0.021523286 -0.71126354 50 52 29 255
-0.025527848 -0.00027148053 -0.73318255 53 57 29 255
-0.021375997 -0.0093181543 -0.73952097 66 61 30 255
-0.032042608 0.025812615 -0.71924466 49 49 30 255
-0.032737061 0.015186984 -0.72153783 54 55 31 255
-0.021036102 -0.0034498684 -0.74053472 62 63 32 255
-0.021010511 -0.0056952052 -0.74142218 64 62 30 255
-0.031984605 0.024040032 -0.72227651 45 46 24 255
-0.033592753 0.019658435 -0.72241032 46 49 27 255
-0.021517431 0.00036572292 -0.74261475 58 59 27 255
-0.018184239 -0.0099259429 -0.74880397 72 67 33 255
-0.012381913 -0.019739401 -0.75694537 78 70 38 255
-0.030223543 0.016591746 -0.73016298 48 51 26 255
-0.030403236 0.012561936 -0.73001212 57 53 29 255
-0.017255234 -0.0062839501 -0.75215918 70 66 32 255
-0.011685885 -0.025479775 -0.75909162 80 67 35 255
-0.018450113 0.045789856 -0.73666078 57 51 37 255
-0.028737813 0.024218101 -0.7305392 45 46 23 255
-0.0263237 0.013736535 -0.73844415 68 66 40 255
-0.020682562 0.0024496205 -0.74783683 63 58 30 255
-0.018021338 -0.0023892038 -0.75236559 63 61 28 255
-0.01452845 -0.010656159 -0.75807357 76 68 35 255
-0.010694912 -0.021702122 -0.76545095 78 71 40 255
-0.022103695 0.033279974 -0.74015701 45 45 25 255
-0.026709383 0.022491504 -0.73951685 49 47 25 255
-0.022667758 0.0097179301 -0.74708116 68 65 35 255
-0.014738923 -0.0062965564 -0.76006764 73 69 33 255
-0.0085011683 -0.024912458 -0.77150857 87 77 35 255
-0.020026471 0.034989227 -0.74497163 45 42 22 255
-0.02464642 0.028726656 -0.74115586 51 46 25 255
-0.026165741 0.026402403 -0.73920023 47 46 24 255
-0.026148548 0.015119392 -0.74337673 59 58 30 255
-0.020363042 0.0058832951 -0.75291312 69 65 31 255
-0.018401643 0.0013491996 -0.75568837 65 61 26 255
-0.015922805 -0.0020049326 -0.76072729 67 62 29 255
-0.02572697 0.023213137 -0.74423116 54 53 25 255
-0.026946004 0.01761492 -0.74444878 61 53 29 255
-0.013277242 0.044703234 -0.75399232 55 49 34 255
-0.024033317 0.02404033 -0.74948126 57 54 28 255
-0.022887127 0.014426906 -0.7514323 59 59 28 255
-0.019741977 0.010480333 -0.75761998 72 66 34 255
-0.017876199 0.0054239221 -0.7609961 69 64 30 255
-0.015907109 0.00096534565 -0.76503778 65 60 25 255
-0.013258798 -0.0035957508 -0.76821768 72 64 29 255
-0.02065178 0.01532932 -0.75609607 69 62 31 255
-0.011051623 0.04076736 -0.7638365 61 56 29 255
-0.016156331 0.031365592 -0.76086813 61 54 27 255
-0.017063733 0.010581005 -0.76885939 73 66 32 255
-0.013308443 0.032215226 -0.76952177 68 58 27 255
-0.015065281 0.016963471 -0.77431506 74 70 38 255
-0.0097841136 0.037537921 -0.77568871 74 67 34 255
-0.013673956 0.025444198 -0.77714753 73 66 38 255
-0.0064117834 0.039534051 -0.78292882 80 68 37 255
-0.0080258921 0.037541468 -0.78382212 75 67 32 255
-0.010600841 0.026780475 -0.782736 76 66 35 255
-0.0090341587 0.034150947 -0.78502971 73 61 35 255
-0.0030736625 0.04206555 -0.79218113 92 79 51 255
-0.0036454871 0.040259559 -0.79258049 90 82 42 255
-0.0092400145 0.028057385 -0.7909888 74 65 32 255
-0.0059828069 0.033184517 -0.79280204 71 65 33 255
-0.012443466 0.0204372 -0.79424453 77 66 35 255
-0.00799709 0.00066416338 -0.80706435 61 56 28 255
-0.01212839 0.01778077 -0.80079257 80 67 34 255
-0.0097940098 0.01661374 -0.80609792 75 63 35 255
-0.012734205 0.015524525 -0.80257273 73 62 29 255
-0.0012584701 -0.008498054 -0.82089192 81 73 32 255
-0.0050522946 -0.00088496134 -0.81896204 59 52 22 255
0.0010466687 -0.014538299 -0.8282361 98 84 36 255
-0.011727333 0.018241424 -0.80854475 76 64 31 255
-0.011538213 0.01478209 -0.8088184 70 56 27 255
-0.010756804 0.010729868 -0.81068993 69 56 26 255
-0.010281431 0.0074082501 -0.81224459 72 61 29 255
-0.0081816372 0.0040925033 -0.81564808 68 53 26 255
-0.0097998101 0.024627496 -0.81044984 82 67 37 255
-0.010296864 0.020787317 -0.81301111 79 66 31 255
-0.0056365579 0.0013818033 -0.82244897 59 52 23 255
-0.0018386785 0.035374153 -0.81737667 80 70 38 255
-0.0092237554 0.02507906 -0.81640565 77 62 28 255
-0.010479206 0.01810782 -0.81420237 74 60 29 255
-0.001646474 0.035450954 -0.8209607 82 72 43 255
-0.0017463155 0.031553496 -0.82349253 86 76 40 255
-0.0024702251 0.030769009 -0.82474852 85 72 37 255
-0.0094499178 0.020991612 -0.81860638 77 63 31 255
-0.0078462828 0.007506419 -0.82394946 68 55 27 255
-0.0047693159 0.0013836809 -0.8270483 67 53 23 255
-0.0034185443 -0.0012906305 -0.82979536 61 53 22 255
-0.0083146282 0.0074863918 -0.82674408 65 53 26 255
-0.007667128 0.0060773082 -0.83048546 66 56 27 255
-0.0073064808 0.0032229908 -0.83108771 57 52 22 255
-0.0089351386 0.015065122 -0.82699513 70 57 28 255
-0.00834224 0.010177989 -0.83046281 67 54 25 255
-0.00086426735 0.032550473 -0.83221948 82 69 40 255
-0.0076177828 0.0070564635 -0.83439058 68 54 27 255
-0.0034875106 0.03029244 -0.83403134 84 69 43 255
-0.0047055539 0.025400776 -0.83481705 85 68 36 255
-0.0078000557 0.014513422 -0.83477539 71 56 27 255
-0.0043869317 0.024284232 -0.83849293 84 69 37 255
-0.0066906177 0.011791755 -0.84332371 64 53 26 255
-0.006507067 0.0063998587 -0.84499949 71 56 29 255
-0.0058940277 0.010046888 -0.84716034 68 55 28 255
-0.001800051 0.021936644 -0.84939289 82 71 43 255
-0.0050736386 0.011093844 -0.85392708 70 59 30 255
-0.0024075843 0.0063223429 -0.86069024 80 63 34 255
-0.0018584169 0.0033271201 -0.858657 74 57 31 255
-0.0043935198 0.0040016361 -0.8587603 69 52 27 255
0.0014469214 0.017128337 -0.86499161 79 60 31 255
-0.0004561618 0.010926444 -0.87537682 71 55 28 255
-0.0014367439 0.0088338144 -0.87844956 78 60 30 255
-0.000175789 0.013174016 -0.880108 81 64 34 255
0.012467351 -0.0030620806 -0.90539891 111 91 52 255
0.0087556317 -0.002354335 -0.90574419 111 87 49 255
0.0061688907 -0.011746567 -0.90765196 99 79 44 255
0.0047258548 -0.0084952824 -0.90663624 86 78 42 255
0.098244235 -0.00056872889 0.80905664 134 145 112 255
-0.0099629294 -0.0055950992 0.74951237 96 106 69 255
0.027463261 -0.035934847 0.73597264 119 125 92 255
0.026772309 -0.025536817 0.73265368 90 95 55 255
-0.0097799022 -0.0072329156 0.74255192 103 109 69 255
0.026982736 -0.021227609 0.73026949 107 112 75 255
0.027819213 -0.023628514 0.72953916 101 107 71 255
-0.0088275056 -0.0096836202 0.73976922 104 112 76 255
-0.012217663 -0.0024610572 0.74075389 102 112 77 255
-0.0085084401 -0.0093354993 0.7367546 105 113 76 255
0.023577545 -0.018638801 0.72745603 103 105 66 255
-0.0099290535 -0.0074958615 0.73650563 108 110 75 255
-0.0076347403 -0.010382276 0.73553175 108 114 78 255
-0.0090805292 -0.0088476352 0.73449999 109 114 77 255
-0.0087331645 -0.0095456354 0.73248249 110 112 77 255
-0.0092890915 -0.0088889413 0.72966516 111 120 77 255
-0.0034471545 -0.01162101 0.72824311 109 113 78 255
-0.01294001 -0.0026642494 0.72967017 102 114 77 255
-0.0076968707 -0.0094675831 0.72485888 115 120 84 255
-0.0039555337 -0.010983836 0.72358745 116 117 84 255
-0.0025626253 -0.012319665 0.72253168 108 113 75 255
0.0029062741 -0.017137419 0.72201818 104 111 73 255
-0.010463847 -0.0065329485 0.72626442 108 114 77 255
-0.0049415156 -0.011181634 0.72229034 103 109 68 255
-0.00048630312 -0.014079522 0.72205442 100 104 70 255
-0.0028613098 -0.013460707 0.72067225 108 111 79 255
0.00032337755 -0.015794229 0.72025371 90 89 56 255
0.0025562197 -0.019011181 0.71807647 87 94 55 255
0.018469755 -0.025081079 0.71365994 122 130 87 255
-0.011145966 -0.0058228485 0.71535581 115 123 84 255
-0.0057106931 -0.013331275 0.71365154 119 121 88 255
0.041426789 -0.028425675 0.69790894 87 94 60 255
0.00095803663 -0.021938544 0.70912576 81 86 45 255
-0.0090249442 -0.0093401186 0.71113098 119 126 90 255
-0.0081312899 -0.011048328 0.7092514 122 129 93 255
0.008015912 -0.02549101 0.70488983 88 100 58 255
-0.0073835235 -0.013090771 0.70771718 122 129 93 255
0.0076611973 -0.026026558 0.70241559 98 107 62 255
0.00098577514 -0.02593426 0.70148438 104 108 70 255
0.0061008669 -0.02706502 0.70027679 102 110 63 255
-0.0077804718 -0.015635263 0.70405656 125 133 96 255
0.0064498074 -0.027463894 0.69897002 93 104 60 255
-0.0016598571 -0.025009137 0.69918686 82 87 52 255
0.032651421 -0.032492053 0.68783242 69 85 38 255
-0.012756279 -0.0082332604 0.69843429 111 121 85 255
0.03086305 -0.031241786 0.68523061 69 81 33 255
-0.0030284058 -0.025272172 0.69574654 75 76 49 255
0.031200815 -0.032982539 0.68437564 76 85 39 255
-0.0040038489 -0.025792699 0.69383305 85 91 51 255
-0.0033564866 -0.025930714 0.69269896 84 91 49 255
0.032807644 -0.03452624 0.68040514 81 91 37 255
-0.0075340215 -0.022859614 0.6928432 129 129 97 255
-0.0049643237 -0.026092719 0.69094682 77 85 52 255
0.026861835 -0.033358108 0.68192661 84 91 47 255
0.02738497 -0.034302663 0.6789884 74 84 36 255
0.0041763261 -0.032235932 0.68430084 85 95 52 255
0.030052435 -0.035293739 0.67576855 84 91 56 255
-0.014218364 -0.0091171972 0.68752015 110 120 81 255
0.0032775253 -0.033289801 0.68125123 81 92 52 255
0.027680013 -0.03537203 0.67357379 75 83 38 255
-0.015406404 -0.0077865832 0.68563098 107 121 84 255
-0.014127603 -0.0099206679 0.68512619 114 122 84 255
0.023743358 -0.034144443 0.67499352 70 84 40 255
0.025495902 -0.035368722 0.67084676 73 83 38 255
-0.012737138 -0.021293532 0.67965019 117 124 90 255
0.0036024749 -0.033658218 0.67488503 71 82 44 255
-0.013108453 -0.022080224 0.67810357 118 124 82 255
-0.0078532398 -0.02881385 0.67534441 68 74 40 255
-0.0054195076 -0.030150067 0.67544836 74 80 43 255
0.0073307343 -0.034575235 0.67163765 86 97 57 255
0.0046620481 -0.033093613 0.67161953 83 93 54 255
0.0065490045 -0.033505362 0.66908574 82 93 56 255
-0.01387223 -0.016271662 0.67416036 114 119 83 255
-0.012938183 -0.019240003 0.67478037 115 120 84 255
-0.0084216688 -0.028615426 0.67345071 62 68 35 255
-0.012895998 -0.019486528 0.67242879 112 119 83 255
-0.0050422382 -0.030816656 0.67120618 77 86 52 255
0.0075895377 -0.034852426 0.66557246 89 97 57 255
-0.012895461 -0.020954739 0.67243212 113 119 82 255
-0.0099257175 -0.028855514 0.67127579 49 60 29 255
0.0069321059 -0.033842873 0.66277558 77 84 50 255
-0.01490576 -0.011120748 0.6695348 109 113 79 255
-0.013159378 -0.021764379 0.66988373 106 108 73 255
0.010024972 -0.035565805 0.66215062 85 95 58 255
-0.012978392 -0.022420328 0.66823006 107 113 77 255
-0.011384005 -0.027596306 0.66776878 99 104 70 255
0.0058262311 -0.032988768 0.6615538 69 79 42 255
0.008705236 -0.035114985 0.65969294 87 96 59 255
-0.012873553 -0.014245611 0.66576123 106 112 79 255
-0.012890622 -0.016620677 0.66593242 106 113 77 255
0.0057668686 -0.033709239 0.6592772 69 81 45 255
-0.013675012 -0.016710173 0.66481006 103 113 79 255
0.0088303313 -0.035004895 0.65668201 68 78 39 255
-0.01551904 -0.010707241 0.66251743 94 102 68 255
-0.011076892 -0.02356125 0.66073674 97 107 70 255
-0.016167691 -0.016073536 0.66166252 101 110 79 255
0.0095064305 -0.035329234 0.65358537 65 75 35 255
-0.015183879 -0.01191185 0.65930623 101 108 74 255
0.0092939921 -0.034269344 0.65179604 56 62 31 255
0.019302025 -0.039487701 0.64806974 64 67 35 255
-0.015618915 -0.010778319 0.65762818 101 111 74 255
-0.0078438912 -0.017843377 0.65408939 100 107 73 255
-0.0059057996 -0.031340998 0.65217406 57 63 35 255
0.019938271 -0.041771006 0.64366376 85 91 48 255
-0.00065454096 -0.03322963 0.64776897 50 57 26 255
-0.0083663203 -0.020371597 0.64881903 94 102 67 255
-0.0087785702 -0.018188696 0.6482693 95 105 69 255
-0.005262224 -0.031246942 0.64559126 55 64 35 255
-0.0020870045 -0.031793546 0.64393342 56 59 36 255
-0.0088870879 -0.018930268 0.64509702 95 103 69 255
-0.00020553358 -0.034124088 0.64144659 58 59 28 255
0.0011011176 -0.038307618 0.64122379 75 89 49 255
0.0074772798 0.018767554 0.63435894 126 132 118 255
-0.0077561494 -0.023967575 0.64265448 92 100 66 255
-0.0080715213 -0.025793593 0.64200246 86 94 58 255
-0.005662404 -0.029824745 0.64066094 73 81 47 255
-0.011427203 -0.011917453 0.64191252 101 108 74 255
0.0016365685 -0.037619215 0.63554114 69 73 46 255
-0.011705173 -0.011691462 0.63810146 101 111 76 255
-0.013649138 -0.010646205 0.63602668 98 109 73 255
-0.0035373885 -0.02564333 0.63309246 82 92 59 255
0.00095781311 -0.036903542 0.63131267 69 74 42 255
-0.013557693 -0.010421824 0.63413012 98 107 72 255
0.010260213 -0.039007913 0.62762058 102 116 71 255
-0.0080405753 0.0014335103 0.62948191 107 118 78 255
0.00019613281 -0.032315236 0.62917864 50 56 25 255
-0.013333159 -0.010204922 0.6310392 90 106 68 255
-0.0057194252 -0.01546542 0.62728745 87 94 61 255
-0.0047143009 -0.016147893 0.62659997 89 96 61 255
-0.0037290975 -0.019491892 0.62503958 86 95 61 255
-0.0035806838 -0.020705055 0.62388682 84 93 61 255
-0.0015532877 -0.026544821 0.6229344 76 82 53 255
0.012206294 -0.038894188 0.6155358 87 98 55 255
0.012850389 -0.040636729 0.61390662 74 79 47 255
-0.0027839579 -0.024189334 0.61776006 90 96 64 255
-0.0018354766 -0.025593977 0.61280924 96 99 68 255
0.0018565468 -0.037988972 0.61186761 51 61 30 255
0.010378275 -0.039495956 0.60853112 71 83 42 255
-0.0059859287 -0.021578532 0.61084837 104 108 74 255
0.0085756518 -0.039705437 0.60794365 40 52 22 255
-0.0043083169 -0.023379009 0.60960913 102 106 76 255
0.002336707 -0.039204966 0.60868686 56 64 30 255
-0.018533878 -0.011920374 0.61355811 82 97 60 255
0.005592078 -0.038054418 0.60485673 56 60 33 255
-0.019425618 -0.011419814 0.61282223 103 110 77 255
-0.016232478 -0.013231527 0.61201513 97 104 70 255
-0.0054832865 -0.022296052 0.60722691 103 109 76 255
0.0072937757 -0.039141219 0.60280067 62 70 38 255
0.0098100938 -0.041578423 0.60120517 88 97 59 255
-0.02122435 -0.011113446 0.61080903 106 118 85 255
-0.0065679569 -0.021572124 0.60602635 105 114 85 255
-0.0036134031 -0.024528336 0.60466081 104 110 78 255
0.0077381954 -0.040225308 0.60144556 72 80 45 255
0.011292145 -0.043474149 0.60165203 127 134 105 255
-0.019680137 -0.011850994 0.6092236 96 107 72 255
0.0098103471 -0.043337505 0.59805787 106 110 73 255
-0.011301612 0.0028811879 0.6037004 114 119 87 255
0.00033411011 -0.03633086 0.60035414 53 56 27 255
0.0020606183 -0.038564514 0.60141414 49 60 28 255
0.0063543729 -0.039698076 0.5993672 71 77 43 255
0.0070138983 -0.04062615 0.59767681 76 83 49 255
0.00716516 -0.050482493 0.59780252 119 119 95 255
0.00099974498 -0.039092969 0.5990448 62 66 37 255
0.39053434 -0.2117102 0.45116955 144 140 111 255
0.0084248744 -0.043409687 0.5943262 94 103 62 255
0.006368462 -0.04542635 0.59123409 65 69 32 255
-0.014950585 -0.015804809 0.60035533 99 108 74 255
-0.013944523 -0.016607773 0.59809148 100 112 75 255
-0.0098392107 -0.020601582 0.59430784 115 120 85 255
-0.0006910488 -0.036747675 0.58975208 55 61 32 255
-0.017428249 -0.015393686 0.59390199 94 105 73 255
-0.019493291 -0.013926368 0.59437037 96 109 75 255
-0.0094020627 -0.021480095 0.5899331 113 119 85 255
-0.001151694 -0.036278557 0.58788931 78 75 40 255
-0.018799594 -0.01404677 0.59295928 98 109 74 255
-0.013040841 -0.018281978 0.59110039 95 111 77 255
-0.018767366 -0.014494758 0.59124613 102 108 75 255
0.00047177076 -0.039130282 0.57706136 71 78 36 255
-0.0083642453 0.020144928 0.57777721 134 134 109 255
-0.013390794 0.0018684156 0.57986212 50 61 32 255
-0.019525763 -0.015524428 0.58389449 96 107 76 255
-0.018316455 -0.017099839 0.58273447 102 110 78 255
-0.019756239 -0.015776526 0.58180821 99 112 75 255
-0.0090857595 -0.031493168 0.57807732 118 122 87 255
-0.0079673138 -0.032571416 0.57747912 121 123 89 255
-0.00030166097 -0.039904099 0.57422876 86 97 37 255
-0.0014721751 -0.040317457 0.57399839 92 93 58 255
-0.016708529 -0.019483458 0.57726067 104 113 79 255
-0.0020073391 -0.038612794 0.57398456 76 86 33 255
-0.019032937 -0.0081416182 0.57739943 87 101 67 255
-0.0042166151 -0.038315427 0.57059669 77 80 44 255
0.3590247 -0.18881248 0.4271031 150 145 105 255
-0.0042350441 -0.038378369 0.56786227 113 116 71 255
-0.019753546 -0.013413679 0.5720343 112 126 90 255
-0.010777581 -0.035806905 0.56977415 124 131 95 255
-0.0072219372 -0.037913527 0.56637782 127 127 87 255
-0.002942156 -0.040930416 0.56599039 83 88 48 255
-0.01998404 -0.016427081 0.56968141 104 112 77 255
-0.0002685301 -0.045699071 0.56367391 132 136 93 255
0.0002845116 -0.047027942 0.56302011 143 143 99 255
-0.0027046427 -0.041366395 0.56363147 110 121 55 255
0.34986788 -0.18236314 0.42143995 129 124 75 255
-0.0017856304 -0.045610916 0.5602895 136 137 91 255
-0.0013074111 -0.04608826 0.5589186 137 136 85 255
-0.0020769071 -0.045510378 0.5568704 140 143 89 255
-0.020307163 -0.017395686 0.56037199 101 111 76 255
-0.0036206394 -0.043326151 0.55552304 132 135 86 255
-0.001403043 0.017402876 0.54881048 169 170 124 255
-0.018628355 -0.018558722 0.55757844 106 114 77 255
-0.018299157 -0.020662736 0.55730611 108 115 81 255
-0.0025878586 -0.04518589 0.55372995 144 144 87 255
-0.0206018 -0.017299931 0.55736709 107 117 79 255
-0.017864976 -0.022305276 0.55725151 106 113 74 255
-0.0051083118 -0.042944025 0.55315 129 127 88 255
-0.018481307 -0.020371716 0.55278599 108 116 76 255
-0.015031578 -0.0052962415 0.54986906 102 118 77 255
-0.019571561 -0.018857908 0.55121505 110 117 77 255
-0.016008057 -0.0016928427 0.54747349 119 127 86 255
-0.015767848 -0.0067224465 0.54671311 108 120 80 255
-0.018798891 -0.019842442 0.54893196 111 118 81 255
-0.019921239 -0.019319769 0.54632974 113 121 80 255
-0.014109816 -0.033244904 0.55217999 123 121 86 255
-0.01399307 -0.011509504 0.54069829 108 119 77 255
-0.019898506 -0.020503547 0.54414576 116 121 84 255
-0.013735076 -0.029169526 0.54116756 111 117 75 255
-0.010304723 -0.037602644 0.53888541 92 105 51 255
-0.012856131 -0.034985702 0.53799349 119 125 89 255
-0.016748369 -0.020948809 0.53733629 113 118 77 255
-0.014603501 -0.034968819 0.53563356 121 122 82 255
-0.018313088 -0.011070203 0.53462762 116 127 84 255
-0.018890429 -0.020211082 0.53480411 117 122 84 255
-0.008377213 -0.056285243 0.53055328 114 129 102 255
-0.010309096 0.026605938 0.5242939 131 129 104 255
-0.010785252 0.024862964 0.52077019 123 131 99 255
-0.013994193 -0.040828969 0.52556276 69 65 32 255
-0.020537674 -0.016010221 0.52647752 119 127 84 255
-0.017194416 -0.026668098 0.52488899 126 125 84 255
-0.021352448 -0.015876841 0.52561826 121 128 85 255
0.30518341 -0.18308249 0.3904705 153 157 132 255
-0.012574892 0.016227294 0.51852524 135 122 82 255
-0.012836805 0.021959905 0.51624191 173 165 131 255
-0.012867931 -0.035420146 0.51874 133 130 85 255
-0.012516825 -0.045794915 0.51868385 162 156 101 255
-0.014608111 0.02497654 0.51485884 142 138 109 255
-0.011736682 0.0073904134 0.50896889 126 120 76 255
-0.016115934 -0.026625123 0.51022005 129 127 83 255
-0.013190966 0.015143413 0.50542915 167 159 110 255
-0.010904551 0.009051431 0.50469863 133 126 83 255
-0.017437851 -0.024478104 0.50848997 130 127 83 255
-0.015105328 -0.02989785 0.50967574 128 125 80 255
-0.013147296 -0.035464387 0.50765908 132 130 71 255
-0.015083864 0.019624356 0.5026561 174 163 126 255
-0.014114643 0.017543245 0.50206304 175 164 119 255
-0.014586691 0.019224245 0.50090241 177 167 125 255
-0.014247192 0.017458666 0.50018394 175 167 123 255
-0.017490501 -0.025241997 0.5046314 139 131 86 255
-0.014545323 0.018862505 0.498925 172 166 128 255
-0.013081163 0.013363425 0.49987364 155 148 101 255
-0.014655743 0.018354628 0.49727145 170 162 125 255
-0.014005829 0.014875744 0.49667361 169 159 110 255
-0.018274693 -0.023264509 0.50017631 137 131 81 255
-0.017357003 -0.025154617 0.49993944 135 131 85 255
-0.014612641 0.016596902 0.49463671 169 162 119 255
-0.010877322 0.010037053 0.493175 138 133 80 255
0.27444851 -0.18781814 0.37521809 126 130 99 255
-0.016433431 0.019847456 0.49353182 164 156 124 255
-0.016729588 0.019954849 0.4921239 166 158 122 255
-0.018565189 -0.018381801 0.49498302 131 127 85 255
0.28345266 -0.14858893 0.36496198 157 162 139 255
-0.0070603527 0.00043703988 0.48674136 143 141 92 255
-0.017748727 -0.021266576 0.49263605 127 124 78 255
-0.015289735 -0.028364595 0.49303979 121 121 74 255
-0.017693613 0.020531584 0.48947763 161 157 120 255
-0.017630968 -0.021089267 0.49013221 131 126 82 255
0.26421294 -0.18549632 0.3642672 148 150 121 255
-0.014691681 -0.027024072 0.48209301 127 115 60 255
-0.01755267 -0.019815829 0.48200154 125 119 71 255
-0.013591394 -0.024102818 0.47999638 126 119 76 255
-0.012973515 -0.026639234 0.4786981 118 112 62 255
-0.01727668 0.012913156 0.47535169 169 159 108 255
-0.014487181 0.0093614347 0.4760524 157 153 101 255
-0.014803469 0.0084781833 0.47408026 157 151 96 255
-0.017093517 0.012041125 0.47298625 169 156 105 255
-0.014728613 0.0096354373 0.47262388 159 152 97 255
-0.007243501 -0.00076429173 0.46903938 141 131 82 255
-0.014311507 0.0074395426 0.4694714 160 154 102 255
-0.016041009 0.0092684366 0.46952456 160 154 101 255
-0.015350714 -0.021172922 0.46815515 120 117 64 255
0.25524896 -0.12580472 0.34892505 180 169 131 255
0.25587118 -0.129765 0.34861636 136 140 115 255
0.25945008 -0.16797569 0.34820211 128 136 101 255
-0.017600808 0.0099016912 0.46590197 163 156 105 255
0.25375044 -0.12995802 0.34713757 126 129 110 255
0.2560164 -0.13243195 0.34672558 110 114 84 255
-0.015347421 0.0069444068 0.46385419 162 152 104 255
0.25342745 -0.13039897 0.3444705 116 118 96 255
0.2451957 -0.17517239 0.34896415 129 136 105 255
-0.0065142699 0.00094403699 0.45525849 164 156 106 255
0.2504774 -0.12809579 0.34305835 124 134 109 255
-0.0054083355 -0.0029157065 0.45395303 144 143 97 255
0.25573388 -0.14329331 0.33729139 134 141 107 255
-0.011966597 0.002699662 0.45523202 161 153 99 255
0.25582042 -0.14671092 0.33555067 129 139 105 255
0.24897172 -0.12890986 0.33702379 124 127 100 255
0.24256493 -0.12475319 0.33510771 129 135 106 255
0.24293147 -0.12536527 0.33278012 129 129 101 255
0.23951699 -0.11892976 0.32887733 137 136 114 255
0.24527301 -0.15401758 0.32541621 134 137 111 255
-0.015522663 -0.0098058991 0.43858457 134 131 85 255
-0.011763308 -0.011143502 0.42082983 135 130 90 255
-0.014713202 -0.0094782524 0.41926682 133 127 89 255
-0.0093466211 -0.0092685483 0.4160915 127 120 82 255
-0.012988534 -0.008742597 0.41749811 134 125 86 255
-0.009766832 -0.011173498 0.41553143 131 125 84 255
-0.014384426 -0.0076790266 0.41425508 137 128 93 255
-0.013229556 -0.0082338564 0.41396853 133 126 87 255
-0.012217116 -0.0096769147 0.41280666 132 124 85 255
0.22463308 -0.10585052 0.30148599 137 136 111 255
-0.0110939 -0.0098449998 0.41237783 132 126 84 255
-0.010336403 -0.010071229 0.41005337 133 126 85 255
-0.012842193 -0.0076568685 0.41003799 131 123 86 255
-0.011599332 -0.0040025972 0.40612373 131 126 88 255
-0.11952209 -0.00067560002 0.43924463 86 81 57 255
-0.15186787 0.0025178827 0.45154837 156 152 124 255
-0.13365678 0.001497332 0.44268778 118 113 77 255
-0.12018855 0.0014206953 0.4356041 82 84 44 255
-0.10862708 -0.0073101185 0.43174562 94 85 56 255
-0.10639705 -0.009377297 0.43084791 97 94 49 255
-0.13523699 0.0031176694 0.44168279 74 75 45 255
-0.11677067 6.6224486e-05 0.43340787 87 84 54 255
-0.10857275 -0.0061348341 0.43042237 97 95 53 255
-0.10670038 -0.0079135858 0.42865294 100 92 45 255
-0.10493325 -0.010651466 0.42833209 102 98 54 255
-0.10199095 -0.01254959 0.42606014 103 96 50 255
-0.11435996 -0.0015357397 0.43013978 98 96 53 255
-0.09277913 -0.015876766 0.41952664 126 116 55 255
-0.11840144 -3.4343451e-05 0.43062848 95 93 52 255
-0.10550176 -0.0083030723 0.42421922 98 98 56 255
-0.1036609 -0.013215777 0.4241595 111 105 54 255
-0.12802409 0.003678862 0.43372613 87 87 53 255
-0.12097457 0.0022961386 0.43012506 86 91 55 255
-0.10919659 -0.0042392276 0.4242174 100 100 53 255
-0.093044639 -0.014976185 0.41751683 120 114 58 255
0.18642509 -0.093457371 0.2786845 143 142 113 255
-0.16201063 0.0078734942 0.45005807 132 126 92 255
-0.14806037 0.0069593526 0.44342989 130 124 98 255
-0.10353433 -0.01268911 0.41892231 104 105 57 255
-0.094864264 -0.014381524 0.41748708 114 111 54 255
-0.089119777 -0.016707208 0.41257694 132 120 66 255
-0.079649433 -0.017819878 0.40830752 136 124 66 255
-0.075685784 -0.018088859 0.40696824 143 128 79 255
-0.16520861 0.0086934902 0.44930491 65 64 31 255
-0.13109939 0.0052203126 0.43233624 87 84 53 255
-0.12422447 0.0027583875 0.4284358 99 98 62 255
-0.117396 0.00020701066 0.42635918 103 105 63 255
-0.095476925 -0.013731372 0.41632712 116 115 56 255
-0.13492727 0.0067824014 0.43266627 85 84 52 255
-0.13015173 0.0046636797 0.43090811 91 95 61 255
-0.10162628 -0.012420963 0.41604102 122 112 63 255
-0.087680794 -0.014967989 0.40886736 130 120 54 255
-0.08239156 -0.016794246 0.40662512 137 123 58 255
-0.070653424 -0.019352313 0.40038019 138 129 68 255
-0.15582438 0.0092639215 0.4418565 54 61 32 255
-0.11604315 -0.0041567944 0.42070824 108 113 64 255
-0.11086954 -0.0055744313 0.41850317 110 106 59 255
-0.10137582 -0.0092310719 0.41407183 118 113 62 255
-0.099003986 -0.011546906 0.41322091 124 117 61 255
-0.097889632 -0.013187941 0.41305038 120 119 66 255
-0.059219286 -0.019247662 0.39335588 146 131 80 255
-0.055802189 -0.020726051 0.39046621 148 133 83 255
-0.10714002 -0.0065092109 0.41514218 109 114 62 255
-0.095128357 -0.011050444 0.40916431 129 120 62 255
-0.090253137 -0.013770174 0.40771404 125 117 58 255
-0.082787409 -0.015218254 0.40402067 134 123 59 255
-0.074508309 -0.017880257 0.39918905 133 123 58 255
-0.071074247 -0.018650364 0.39888316 131 117 63 255
-0.06609875 -0.019166868 0.39602026 134 124 75 255
-0.14575793 0.015121091 0.43241048 72 76 45 255
-0.10782202 -0.0071268789 0.41345236 114 116 60 255
-0.097296402 -0.010032263 0.40933305 119 117 59 255
-0.089108974 -0.013765123 0.40635157 131 123 56 255
0.17867774 -0.089658305 0.27270794 131 134 101 255
-0.26097131 0.094563007 0.48523825 79 82 59 255
-0.11118189 -0.0044994317 0.41236693 106 110 60 255
-0.099253178 -0.0074711405 0.40743548 124 120 65 255
-0.091688685 -0.01203927 0.40688777 122 118 61 255
-0.086517438 -0.014007639 0.4032883 134 124 64 255
-0.072449222 -0.017943855 0.39567807 132 121 58 255
0.17721196 -0.088220537 0.2713418 136 136 107 255
-0.092595652 -0.010934364 0.40428525 122 116 62 255
-0.090526864 -0.011967521 0.40263277 132 123 69 255
-0.082972333 -0.01436248 0.39950818 137 126 59 255
0.17563945 -0.088736787 0.26934737 126 132 98 255
-0.14741266 0.019453872 0.42922205 59 70 40 255
-0.094531819 -0.0083900504 0.40194589 129 123 71 255
-0.085538432 -0.012362402 0.39836732 135 124 64 255
-0.082331195 -0.015107673 0.39681196 133 124 60 255
-0.07675945 -0.01568849 0.394171 133 124 61 255
-0.070977733 -0.017302912 0.39093113 134 123 60 255
0.17829578 -0.093085632 0.26826668 132 138 98 255
-0.12947033 0.0092536993 0.41807941 78 85 47 255
-0.10047345 -0.0068910085 0.40377313 127 121 69 255
-0.25921124 0.094344005 0.47932878 79 78 57 255
-0.081449419 -0.014238771 0.39237982 138 129 72 255
-0.075533018 -0.015146669 0.38990986 137 127 66 255
-0.065482184 -0.019608583 0.38396233 138 127 67 255
-0.053789243 -0.023618262 0.37774235 140 130 71 255
-0.071316093 -0.016804468 0.38590473 139 126 66 255
-0.066981941 -0.01832157 0.383757 140 128 65 255
-0.064132452 -0.01902106 0.38170123 141 129 65 255
-0.057051908 -0.020073336 0.37822127 136 126 62 255
-0.11231719 -0.0021251105 0.40622008 98 98 49 255
-0.10414945 -0.0065495931 0.40050089 108 106 51 255
-0.10138449 -0.0073787235 0.39913067 113 112 56 255
-0.097230956 -0.0083918087 0.39798957 114 114 56 255
-0.061641909 -0.019443136 0.37873775 142 132 77 255
-0.056794543 -0.022394773 0.37725949 138 127 65 255
-0.046760146 -0.021945368 0.37127894 139 127 65 255
-0.2453513 0.086188138 0.46852902 65 68 46 255
-0.23901908 0.079586834 0.46348286 63 72 43 255
-0.11908022 0.0090822615 0.40612486 83 86 40 255
-0.11563417 0.0081667043 0.40281841 85 84 38 255
-0.090589836 -0.012162726 0.3927505 126 119 59 255
-0.083314329 -0.013488796 0.38816947 128 120 58 255
-0.080371812 -0.013536703 0.38622957 132 125 63 255
-0.066749193 -0.018481966 0.37994564 143 131 73 255
-0.25397533 0.091513276 0.46888068 72 76 58 255
-0.24941219 0.088745415 0.46851337 63 71 45 255
-0.24262509 0.083354533 0.46425146 73 80 49 255
-0.12375702 0.012599472 0.40708017 68 72 32 255
-0.11739327 0.011981625 0.40317664 81 86 39 255
-0.11182478 0.0060116686 0.40043369 86 88 39 255
-0.10448994 0.0017963238 0.39817843 100 99 45 255
-0.10592526 -0.0070658587 0.39987087 106 102 50 255
-0.081661314 -0.01397742 0.38713551 139 132 70 255
-0.057876535 -0.020498466 0.3728984 147 135 78 255
-0.049932711 -0.020890679 0.36946282 141 129 63 255
0.17686105 -0.10839252 0.25749838 159 164 132 255
-0.22583519 0.07064721 0.45543167 97 103 69 255
-0.16566782 0.076055393 0.42376655 80 81 56 255
-0.1643218 0.073497236 0.42032677 66 73 43 255
-0.12095425 0.018673737 0.4019208 71 80 37 255
-0.11667442 0.016653467 0.40057331 75 81 36 255
-0.10978433 0.010344405 0.39880693 83 89 33 255
-0.10331285 0.0052295811 0.39525157 101 99 46 255
-0.099364147 -0.0085394196 0.3952485 106 106 47 255
-0.096065164 -0.0098321997 0.39411485 114 110 50 255
-0.086702406 -0.012616258 0.38800848 124 116 58 255
-0.077173337 -0.014700737 0.38211659 134 126 65 255
-0.2497609 0.090310737 0.46539479 73 73 61 255
-0.24356674 0.08679527 0.46256793 71 80 47 255
-0.16359217 0.06872803 0.42065978 72 78 45 255
-0.12106255 0.027285386 0.39974767 74 80 40 255
-0.12048486 0.023611594 0.40043783 70 81 37 255
-0.11769569 0.024003867 0.39885023 74 84 35 255
-0.11674194 0.021389876 0.39815801 76 81 35 255
-0.097368747 -0.009139102 0.39155567 112 106 44 255
-0.074766569 -0.015551087 0.38028997 136 126 68 255
-0.063379042 -0.01870079 0.373321 144 132 74 255
0.17122187 -0.097583622 0.25612766 114 120 86 255
-0.11874184 0.025093619 0.3977502 77 78 36 255
-0.10738088 0.020244811 0.39208394 94 96 38 255
-0.10614246 0.016277198 0.392564 96 96 35 255
-0.10753717 0.013670731 0.39372325 93 91 35 255
-0.10298583 -0.0049395077 0.39250618 117 112 44 255
-0.091655508 -0.0085480921 0.38711166 125 118 54 255
-0.078463584 -0.012279864 0.37975299 122 113 49 255
-0.0679098 -0.017099466 0.37539333 142 133 72 255
-0.056963224 -0.020564254 0.36824262 145 136 75 255
-0.24659316 0.088885397 0.46061006 84 90 61 255
-0.15877551 0.068335146 0.41419965 65 70 41 255
-0.15460189 0.064810008 0.41274336 63 69 37 255
-0.11623503 0.027869675 0.39344287 80 87 39 255
-0.072237834 -0.013076227 0.37483788 124 116 57 255
