ply
format ascii 1.0
comment PCL generated
element vertex 929
property float x
property float y
property float z
property uchar red
property uchar green
property uchar blue
property uchar alpha
element camera 0
property float view_px
property float view_py
property float view_pz
property float x_axisx
property float x_axisy
property float x_axisz
property float y_axisx
property float y_axisy
property float y_axisz
property float z_axisx
property float z_axisy
property float z_axisz
property float focal
property float scalex
property float scaley
property float centerx
property float centery
property int viewportx
property int viewporty
property float k1
property float k2
end_header
-0.11226324 0.16178204 0.080015711 122 127 98 255
-0.10907378 0.16183406 0.079343826 124 129 96 255
-0.072294071 0.17097718 0.06916713 108 114 69 255
-0.071949758 0.16865312 0.064992346 109 117 78 255
-0.053814903 0.16935575 0.057605758 105 109 70 255
-0.13282222 0.16625914 0.083586551 127 134 102 255
-0.12869634 0.16388634 0.083168931 133 141 109 255
-0.12217496 0.16245429 0.081774771 123 131 90 255
-0.10505623 0.16003267 0.07772281 114 122 93 255
-0.069715627 0.16899149 0.063471653 96 100 65 255
-0.13072839 0.16427401 0.08287283 135 140 99 255
-0.12713401 0.16193639 0.081949793 136 143 111 255
-0.093724929 0.16304265 0.071354814 115 117 87 255
-0.08948566 0.16183016 0.067736953 115 121 85 255
-0.08658734 0.16306666 0.066340595 117 127 85 255
-0.056833193 0.16666809 0.055244248 112 116 80 255
-0.12906517 0.16278744 0.081474006 136 139 109 255
-0.12551852 0.16111735 0.080450721 135 142 111 255
-0.12395491 0.16056532 0.080466621 134 141 110 255
-0.13767236 0.1626907 0.081270479 131 136 101 255
-0.13641201 0.16163957 0.080889635 133 138 105 255
-0.13385998 0.16099562 0.080790356 136 145 112 255
-0.1153968 0.15795118 0.077122666 110 122 76 255
-0.11247426 0.15838024 0.076535568 108 119 75 255
-0.0940836 0.15676713 0.068161055 109 109 77 255
-0.063283592 0.16424268 0.055021778 107 118 74 255
-0.058672942 0.1646134 0.053028807 116 122 86 255
-0.054169118 0.1656252 0.051911358 113 117 83 255
-0.13534148 0.15956351 0.078287467 136 139 109 255
-0.089657247 0.15715191 0.065675542 99 108 72 255
-0.085659906 0.15806961 0.063219354 131 131 104 255
-0.06310764 0.16434336 0.054986101 117 123 90 255
-0.052177511 0.16502191 0.049397897 112 117 86 255
-0.12757586 0.15681633 0.075513378 136 140 107 255
-0.088516727 0.15574297 0.06374637 99 106 70 255
-0.061490603 0.16278043 0.052702863 117 122 90 255
-0.050775908 0.16473751 0.045979995 117 119 86 255
-0.13098292 0.15625098 0.074769557 135 142 107 255
-0.10179853 0.15200606 0.067429721 117 126 92 255
-0.093877077 0.15210202 0.0648394 109 118 80 255
-0.091036342 0.15234444 0.063131809 99 107 73 255
-0.055229731 0.16273069 0.047780402 117 121 93 255
-0.11403116 0.15209824 0.070896678 120 134 99 255
-0.10378125 0.1496551 0.065388404 114 122 86 255
-0.099976361 0.15072733 0.065026172 111 116 84 255
-0.10085732 0.14843562 0.063261487 113 118 85 255
-0.095691994 0.14937855 0.062690042 123 129 100 255
-0.055047706 0.15987796 0.044372879 127 132 97 255
-0.1283578 0.15058616 0.07071986 124 130 87 255
-0.11814001 0.14865732 0.068323113 112 112 76 255
-0.10726864 0.14689052 0.06276948 118 126 85 255
-0.13441758 0.14982361 0.069433428 106 116 78 255
-0.10410766 0.14576386 0.063227572 126 133 101 255
-0.10305047 0.14565478 0.061286498 118 126 92 255
-0.09941043 0.14548641 0.06046766 109 124 79 255
-0.1312259 0.14797662 0.068165913 112 116 73 255
-0.12138212 0.14569832 0.066204794 119 123 87 255
-0.11061202 0.14499135 0.06284339 126 131 97 255
-0.088579267 0.14721501 0.056919314 113 117 86 255
-0.12780651 0.14660552 0.067045204 118 122 83 255
-0.11967017 0.14451319 0.065103136 129 129 101 255
-0.11449721 0.14343722 0.062958635 142 148 112 255
-0.10536238 0.14304015 0.058934841 119 126 88 255
-0.09907338 0.1413871 0.057984062 120 128 94 255
-0.052711681 0.15349454 0.037313256 116 121 94 255
-0.13752013 0.14814189 0.0681872 128 133 103 255
-0.13446066 0.14624897 0.06624987 133 131 101 255
-0.12482297 0.14464952 0.065127529 126 132 99 255
-0.12244421 0.14367479 0.064146966 125 129 95 255
-0.11831897 0.14328456 0.063280098 139 144 105 255
-0.11554246 0.14286317 0.062347762 139 145 109 255
-0.11235782 0.14011431 0.059062038 122 135 93 255
-0.10039447 0.13859758 0.059291545 128 131 104 255
-0.13152874 0.14515701 0.065852217 111 115 77 255
-0.11806165 0.14013414 0.061977305 132 140 109 255
-0.11185698 0.14084195 0.059940513 132 139 95 255
-0.092277348 0.13902935 0.053813126 119 124 92 255
-0.059536576 -0.038106676 0.14364871 104 116 43 255
-0.12727378 0.14259243 0.06238712 114 115 80 255
-0.12301952 0.14181107 0.061862901 127 130 97 255
-0.056682594 -0.042493049 0.14233671 96 104 39 255
-0.12982453 0.14152879 0.061744016 104 108 69 255
-0.10579479 0.134711 0.05479423 133 140 106 255
-0.10193378 0.13573116 0.053519178 125 135 93 255
-0.093110465 0.13636255 0.052166611 126 129 100 255
-0.03707483 -0.055239975 0.14053455 116 119 37 255
-0.034946177 -0.059073638 0.14269882 109 112 36 255
-0.12382938 0.13912854 0.059328303 126 130 92 255
-0.12203908 0.13781595 0.058603767 125 130 93 255
-0.12068103 0.13627706 0.057595968 126 129 92 255
-0.11501918 0.13427493 0.055893105 129 133 100 255
-0.035518259 -0.056152549 0.13962677 110 118 35 255
-0.11433312 0.13250755 0.05346328 129 130 93 255
-0.075937316 0.13675363 0.039423939 112 113 81 255
-0.060259432 -0.01901157 0.12476876 105 112 41 255
-0.11563303 0.13100615 0.05264267 118 123 82 255
-0.11273002 0.13068824 0.052546758 124 131 92 255
-0.11144939 0.12949222 0.051529523 136 139 104 255
-0.076098382 0.1354754 0.038975392 110 111 80 255
-0.024661964 -0.066634133 0.13792297 103 108 37 255
-0.12111501 0.13392618 0.05244441 119 121 82 255
-0.12017071 0.1337242 0.0537862 111 116 75 255
-0.11870203 0.13200636 0.052509215 123 123 83 255
-0.079669707 0.13115928 0.039402906 114 122 89 255
-0.030462749 0.14525585 0.01839773 121 126 88 255
-0.027613994 -0.058615547 0.13176429 112 117 40 255
-0.019531185 -0.079460844 0.14106135 100 102 38 255
-0.018671576 -0.080451772 0.14119028 100 103 38 255
-0.11649382 0.13039926 0.051082939 128 135 100 255
-0.11336485 0.12931284 0.051327828 126 135 96 255
-0.11313852 0.12826774 0.050456017 124 128 99 255
-0.10510999 0.12657107 0.048880242 114 116 79 255
-0.10122125 0.12474103 0.048183706 123 125 90 255
-0.094103865 0.12544434 0.04586466 127 131 102 255
-0.091744155 0.12591262 0.044873986 121 126 92 255
-0.088140555 0.12615928 0.044040844 115 120 89 255
-0.085278988 0.12617965 0.042467359 125 129 99 255
-0.028042328 0.14248404 0.015187285 124 128 88 255
-0.1183671 0.1295757 0.048969474 121 125 92 255
-0.11365313 0.12775105 0.048554569 118 121 90 255
-0.053925313 -0.014629031 0.1108483 118 121 37 255
-0.11726871 0.12742798 0.047460809 112 114 81 255
-0.1125916 0.12628971 0.04716881 103 109 73 255
-0.09168981 0.12414106 0.04298047 124 127 94 255
-0.033009689 0.14034846 0.016013183 133 133 106 255
-0.11434823 0.12634413 0.046794217 101 107 70 255
-0.11229178 0.12507541 0.045913443 110 116 81 255
-0.11001798 0.12443347 0.045708511 103 103 65 255
-0.03647178 0.1347374 0.014966778 129 132 106 255
-0.048171222 -0.016448999 0.10713655 117 122 39 255
-0.11212489 0.12513097 0.045646593 133 139 103 255
-0.11568144 0.12411987 0.043806184 129 129 104 255
-0.11229889 0.12315142 0.043514159 97 101 62 255
-0.093516976 0.11706092 0.039855391 116 120 79 255
-0.12231672 0.12445502 0.044294253 114 112 74 255
-0.11098928 0.12254576 0.042781416 107 113 71 255
-0.10802509 0.1217208 0.042636629 114 122 79 255
-0.090511762 0.11466528 0.038464181 117 121 79 255
-0.03169452 0.13332412 0.0090846373 114 118 95 255
-0.11253582 0.12071154 0.040442798 96 99 61 255
-0.024795249 0.13184322 0.0029258644 95 99 60 255
-0.041857027 -0.011177374 0.093837179 123 123 42 255
-0.034479562 -0.018762724 0.094532676 125 131 49 255
-0.029446501 -0.022324478 0.094856828 124 132 44 255
-0.11809994 0.12170441 0.041505605 106 113 78 255
-0.10978957 0.12031854 0.038795024 104 109 72 255
-0.10542795 0.12003693 0.039119795 114 116 75 255
-0.088472225 0.11343245 0.034595877 122 121 91 255
-0.11217213 0.11909264 0.038137611 108 110 78 255
-0.10974054 0.11829662 0.036911704 101 104 57 255
-0.092599496 0.11282945 0.034273956 105 110 58 255
-0.089700289 0.11234255 0.034112945 130 133 96 255
-0.12460531 0.12225708 0.038844276 98 96 73 255
-0.1170663 0.11997768 0.037544865 118 123 93 255
-0.11062829 0.11817253 0.036463544 97 99 64 255
-0.039098896 0.12894939 0.0044444008 126 125 96 255
-0.02371932 0.12981415 -0.0023590485 84 90 54 255
-0.11056685 0.11699218 0.034388494 96 97 59 255
-0.10498081 0.11413275 0.033461943 89 90 56 255
-0.09678641 0.11250018 0.031478688 89 95 41 255
-0.091174759 0.11062048 0.030628938 77 78 40 255
-0.11622398 0.11653604 0.033216368 113 118 83 255
-0.10498746 0.11385132 0.031002503 86 91 59 255
-0.030715987 0.12463675 -0.0026000785 102 103 67 255
-0.11593443 0.11521529 0.030501783 115 119 73 255
-0.033675678 0.1260328 -0.00022756773 106 107 76 255
-0.023512483 -0.010318859 0.073630057 97 94 28 255
-0.017084438 -0.020051664 0.074640281 100 92 25 255
-0.015235809 -0.026721779 0.080114827 108 97 35 255
-0.12447191 0.11845469 0.031290103 75 77 66 255
-0.032773145 0.12513253 -0.0016968558 99 107 68 255
-0.09250164 0.10865161 0.024988651 80 89 46 255
-0.046465881 0.12434539 -0.00089469645 116 117 85 255
-0.03635405 0.12285484 -0.0019842098 111 109 78 255
-0.028362557 0.1241778 -0.0074904943 107 108 75 255
-0.024008296 0.12573871 -0.0080947587 110 109 79 255
-0.0054318123 -0.037587747 0.07840848 128 119 42 255
-0.046716575 0.12236182 -0.00098179746 117 119 86 255
-0.031801187 0.12237063 -0.0069278674 111 109 80 255
-0.10490732 0.1117917 0.021569356 64 68 36 255
-0.099277459 0.10874857 0.021957137 82 86 54 255
-0.085184053 0.10284591 0.02035597 109 116 83 255
-0.032311648 0.12241606 -0.0070195431 101 105 72 255
-0.027265055 0.12225716 -0.010084935 103 106 67 255
-0.018954273 0.002799639 0.055068482 101 103 30 255
-0.03861 0.11995476 -0.0043845074 109 114 74 255
-0.032502025 0.12011845 -0.0090394961 102 105 71 255
-0.026259858 0.12134707 -0.013263976 105 107 74 255
-0.10280439 0.10808921 0.01882894 79 84 45 255
-0.093727484 0.10603578 0.017276008 101 104 75 255
-0.038174294 0.12401205 0.0032650409 97 104 63 255
-0.042772643 0.1182751 -0.0059028873 110 111 77 255
-0.034668926 0.11830595 -0.0093483785 101 103 69 255
-0.030318644 0.1195334 -0.010362652 102 107 66 255
-0.10273343 0.10754225 0.016935851 89 91 54 255
-0.095152751 0.10544023 0.015177927 115 115 83 255
-0.046994381 0.11656451 -0.0055757882 108 113 75 255
-0.035048157 0.11767551 -0.010210884 101 106 68 255
-0.027412957 0.11884286 -0.014191073 91 94 56 255
-0.017510001 0.12097445 -0.020540956 98 105 63 255
-0.012054564 0.12117517 -0.021677855 100 104 76 255
-0.10531382 0.108695 0.014419744 81 85 50 255
-0.014203565 0.11970901 -0.022607405 99 103 66 255
-0.091270201 0.10244864 0.01115037 100 106 68 255
-0.048638158 0.11284354 -0.0084239589 110 110 74 255
-0.012735351 0.11843137 -0.025015138 90 93 59 255
-0.10841973 0.10938446 0.011612075 83 85 56 255
-0.10398025 0.10674693 0.01125431 97 101 69 255
-0.099578544 0.10590641 0.011011257 106 108 75 255
-0.048335932 0.11142334 -0.0094669545 105 108 68 255
-0.043684274 0.11299907 -0.012026575 98 100 63 255
-0.041802436 0.11085093 -0.015695374 102 107 66 255
-0.019819509 0.11828419 -0.023234308 94 102 61 255
-0.015726123 0.11760984 -0.02468982 93 98 60 255
-0.010967998 0.11687109 -0.028073162 90 89 56 255
-0.099510834 0.10514502 0.0087661585 116 122 94 255
-0.052155726 0.10908157 -0.009669316 103 110 67 255
-0.037220851 0.11168946 -0.01757665 102 104 65 255
-0.012774622 0.11692117 -0.027318735 89 94 56 255
-0.0095841661 0.11666368 -0.029320154 97 98 67 255
-0.019985944 0.11437762 -0.027832549 101 98 69 255
-0.087194942 0.09345226 0.0056005744 104 110 76 255
-0.022677291 0.1123191 -0.028766073 106 99 63 255
-0.014435127 0.11290245 -0.033145424 97 99 59 255
-0.013792458 -0.015620228 0.039950673 102 95 40 255
-0.017690096 0.1124787 -0.032906581 100 97 61 255
-0.015628144 0.1115592 -0.03595889 91 93 60 255
-0.015407443 -0.013399219 0.037855078 92 84 33 255
-0.088245787 0.090639457 0.00039405283 101 108 77 255
-0.03935881 0.10515164 -0.025014047 107 111 76 255
-0.015648432 -0.01410865 0.035440356 89 83 33 255
-0.043174118 0.10249865 -0.025600187 116 113 80 255
-0.020037141 0.10923873 -0.037029099 84 87 48 255
-0.012521574 0.10988763 -0.040684476 90 93 61 255
-0.094310977 0.090972424 -0.0020630332 88 93 63 255
-0.095430166 0.090604275 -0.0060070166 87 90 64 255
-0.072128683 0.081840239 -0.0077536711 89 91 61 255
-0.051416039 0.091894664 -0.024465317 99 98 61 255
-0.073729247 0.07998313 -0.0082470188 91 93 56 255
-0.048054762 0.092350498 -0.028021419 80 86 50 255
-0.014640965 0.10626406 -0.044371527 95 100 67 255
-0.019574935 0.0069463779 0.015313177 121 115 52 255
-0.088691704 0.085871682 -0.010000517 99 100 74 255
-0.087336883 0.083972819 -0.0099949623 114 113 85 255
-0.071788266 0.076620176 -0.011329426 93 101 62 255
-0.075363211 0.075294286 -0.011909994 103 109 73 255
-0.070040017 0.072547741 -0.017079975 98 102 68 255
-0.016986791 0.10269284 -0.046970341 91 95 59 255
-0.019647885 0.0031966595 0.012175967 124 118 41 255
-0.080833793 0.076277897 -0.012082853 118 120 89 255
-0.076569878 0.07358335 -0.01419787 115 119 82 255
-0.074565977 0.073213726 -0.013336935 101 108 66 255
-0.069736898 0.072238438 -0.015040406 104 114 80 255
-0.019600317 0.0041821217 0.0092084361 124 123 47 255
-0.089210331 0.081372917 -0.015757874 98 98 77 255
-0.079742014 0.072954096 -0.0136048 119 119 91 255
-0.020300552 0.099627621 -0.048477646 89 95 55 255
-0.079011619 0.072309166 -0.01502153 111 116 84 255
-0.076338045 0.071883738 -0.014942766 110 115 77 255
-0.074204907 0.070960566 -0.016072655 107 112 80 255
-0.072214708 0.070091777 -0.017693248 103 110 76 255
-0.068362184 0.070493273 -0.019739412 93 95 66 255
-0.019878622 0.0031935542 0.0053101494 124 124 40 255
-0.091823891 0.081851766 -0.017787244 99 95 63 255
-0.067998022 0.068410546 -0.022598159 97 98 69 255
-0.074026845 0.068527266 -0.019541569 116 123 86 255
-0.070069335 0.0679316 -0.020860583 101 107 68 255
-0.078256652 0.069248401 -0.019570408 123 130 95 255
-0.076128371 0.064582787 -0.020139536 114 119 87 255
-0.072299935 0.065633871 -0.021482047 107 113 74 255
-0.024412651 0.0075793075 -0.0084932037 133 128 86 255
-0.074027672 0.061284326 -0.024386447 111 117 74 255
-0.071158342 0.061025232 -0.025495633 107 111 72 255
-0.020533867 0.0070666973 -0.011405248 134 130 66 255
-0.065854959 0.063125581 -0.030641295 97 96 69 255
-0.020509092 0.003450247 -0.017683491 127 123 43 255
-0.019193713 0.0011478965 -0.019865282 123 115 42 255
-0.015490717 -0.0058263908 -0.021978537 112 102 37 255
-0.018607989 0.00056001684 -0.034974005 118 110 39 255
-0.020824526 0.0040081418 -0.040457796 123 114 47 255
-0.018946335 0.0019111275 -0.039926067 117 112 40 255
-0.017896526 -0.001309522 -0.037746824 115 110 35 255
-0.019667242 0.0027305423 -0.043518942 122 113 36 255
-0.019191738 0.0012864689 -0.045192178 120 115 41 255
-0.010810541 0.082799762 -0.10146085 109 108 65 255
-0.0058637802 0.082296908 -0.10142057 112 111 59 255
-0.014985159 -0.006886546 -0.049843479 117 109 46 255
-0.011882358 -0.0084924772 -0.049508456 110 107 43 255
-0.022559743 0.00805627 -0.057022378 142 137 68 255
-0.020291794 0.0035374998 -0.058087885 124 121 45 255
-0.020449502 0.007330812 -0.064068317 142 138 58 255
-0.014538114 -0.0084483474 -0.055536453 116 111 44 255
-0.019504908 0.0040005329 -0.063694514 132 131 53 255
-0.017818039 -0.0031598345 -0.059680503 118 113 41 255
-0.025538832 0.011824373 -0.067660607 97 88 59 255
-0.020586645 0.0067028361 -0.067259364 125 122 53 255
-0.019881491 0.004158204 -0.066204518 127 126 43 255
-0.020816879 0.0036365218 -0.070144504 127 122 48 255
-0.024274942 0.0072719469 -0.074626051 144 143 85 255
-0.022312166 0.0046518533 -0.073985867 136 130 59 255
-0.020325262 0.0020343675 -0.07229466 112 109 33 255
-0.022297736 0.0028718612 -0.077756822 136 128 68 255
-0.023322975 0.0035133376 -0.079376087 145 135 73 255
-0.015409202 -0.0072053229 -0.078412786 111 110 44 255
-0.014694389 -0.007875029 -0.079860888 108 110 44 255
-0.0076045971 0.057563238 -0.12505999 115 106 45 255
-0.015952017 -0.0078250784 -0.082231551 114 111 46 255
-0.062827125 0.023237256 -0.091599025 113 110 85 255
-0.015589126 -0.0085441675 -0.086624712 109 108 41 255
-0.015345473 -0.0088242237 -0.088740781 114 112 44 255
-0.019075846 -0.0069519416 -0.091253601 116 115 38 255
-0.021098079 -0.0010118769 -0.10483848 118 113 40 255
-0.018391328 -0.012530355 -0.10757313 110 104 40 255
-0.021888301 -0.0079058502 -0.11222478 114 105 45 255
-0.021586152 -0.0098500866 -0.11358123 104 92 34 255
-0.018912435 -0.012041265 -0.11300911 110 104 42 255
-0.022221472 -0.0084710214 -0.11901798 102 92 27 255
-0.015518447 -0.010584632 -0.12533839 111 105 45 255
-0.013718955 -0.010882201 -0.12844338 119 115 51 255
-0.013429923 -0.011197096 -0.1299995 118 114 39 255
-0.014590315 -0.010380695 -0.1314882 118 107 45 255
-0.11011607 0.38006145 -0.36035067 88 92 66 255
-0.027288388 -0.005471176 -0.14183135 116 113 32 255
-0.021678979 -0.008484846 -0.1428363 106 102 32 255
-0.026446341 -0.0048443438 -0.14983597 110 107 40 255
-0.012486901 -0.010700142 -0.15453039 97 98 38 255
-0.0087474491 -0.011057464 -0.15550891 102 100 50 255
-0.021847099 -0.0049851746 -0.15738136 102 96 34 255
-0.014886499 -0.009850217 -0.15624814 97 95 38 255
-0.12115148 0.37685156 -0.36911732 142 139 93 255
-0.011873873 -0.010956822 -0.15834518 95 96 38 255
-0.011635402 -0.010920553 -0.16281295 103 98 39 255
-0.013220899 -0.010514995 -0.16294912 100 94 33 255
-0.12588759 0.3736175 -0.37229756 138 133 103 255
-0.013089293 -0.010723038 -0.16612296 100 91 36 255
-0.027024414 0.0037167235 -0.17654952 96 87 28 255
-0.11462875 0.36521679 -0.37911087 107 111 72 255
-0.031806216 0.0018877774 -0.17591223 57 49 7 255
-0.025456607 0.0032397523 -0.17801155 83 78 22 255
-0.02423661 0.0029846891 -0.17946896 80 73 25 255
-0.02006582 -0.0016290979 -0.1803737 98 92 40 255
-0.021558436 0.00091219833 -0.18190528 113 100 41 255
-0.017013993 -0.0042816014 -0.18057309 106 98 42 255
-0.038592272 -0.00073870877 -0.17727484 113 106 51 255
-0.02701484 0.0022500767 -0.18270802 50 46 5 255
-0.034793362 -0.0014338479 -0.17934644 108 102 42 255
-0.022709189 0.00083803525 -0.18662098 83 78 24 255
-0.027774667 0.00069631031 -0.1876238 56 46 5 255
-0.014902688 -0.0068537802 -0.19148326 105 101 39 255
-0.12681088 0.36037436 -0.39058024 132 127 99 255
-0.031896852 -0.0011595325 -0.18851221 63 53 18 255
-0.025029853 0.00051263859 -0.19203076 56 44 9 255
-0.018656431 0.00038746139 -0.19597071 104 100 37 255
-0.017600194 -0.00018066028 -0.195658 106 100 38 255
-0.11727897 0.35452798 -0.39223552 94 100 59 255
-0.11568965 0.35345557 -0.39269722 92 101 60 255
-0.022415761 -0.00090249488 -0.19887955 85 74 25 255
-0.031924181 -0.002225107 -0.19145754 59 49 13 255
-0.026232762 -0.00065021822 -0.19471717 50 39 4 255
-0.018056158 6.5760221e-05 -0.20352468 92 78 39 255
-0.11799213 0.35013404 -0.39903346 86 91 55 255
-0.033427071 -0.0028652535 -0.19587451 107 100 38 255
-0.028780272 -0.0017675892 -0.19710958 43 37 1 255
-0.023945084 -0.00064639607 -0.20304361 69 64 20 255
-0.016348347 0.00013096025 -0.2055133 105 96 37 255
-0.12467748 0.35266694 -0.40070969 130 126 87 255
-0.028725579 -0.0023870827 -0.20098886 52 44 2 255
-0.11534686 0.34688738 -0.40095297 92 96 60 255
-0.029398296 -0.0033582584 -0.20638663 67 58 17 255
-0.023315441 -0.0012206347 -0.20968814 59 52 14 255
-0.026308982 -0.0018579201 -0.21301872 48 38 3 255
-0.02276431 -0.00098464498 -0.21602015 65 54 11 255
-0.12363042 0.34658015 -0.40781587 111 112 74 255
-0.12270968 0.34441561 -0.40991324 109 112 65 255
-0.020601979 -0.00044920901 -0.2209053 70 58 13 255
-0.12252209 0.34278458 -0.41146171 107 117 64 255
-0.11972199 0.34141073 -0.41200256 90 92 53 255
-0.012729059 -0.00047179917 -0.22478986 99 93 38 255
-0.02211218 -0.0018985257 -0.22473487 66 53 8 255
-0.019833598 -0.00059275189 -0.2269527 74 68 21 255
-0.011756188 -0.0008757324 -0.23151377 102 95 39 255
-0.021841781 -0.001278928 -0.22964591 66 54 9 255
-0.015867559 -0.0012308941 -0.23199746 66 60 16 255
-0.012989484 -0.00073898444 -0.23451307 102 95 38 255
-0.013788732 -0.001320994 -0.23874457 97 88 34 255
-0.11390342 0.32486367 -0.42471212 85 91 57 255
-0.012271724 -0.002292505 -0.24225573 101 93 36 255
-0.0045871977 -0.0083810221 -0.24562797 114 110 51 255
-0.017475601 -0.0019476847 -0.27124116 100 92 42 255
-0.017401055 0.00072153052 -0.27399191 96 93 38 255
-0.10703482 0.30017594 -0.44537127 76 84 47 255
-0.10322721 0.29824319 -0.44831294 69 72 40 255
-0.014272257 -0.00560437 -0.27511463 95 87 36 255
-0.016858554 -0.00045983354 -0.28166229 98 91 39 255
-0.014525549 -0.0029374049 -0.28187272 100 92 39 255
-0.017437764 0.00069934269 -0.28630298 97 91 39 255
-0.01769495 0.00051823398 -0.29060638 99 92 42 255
-0.015735842 -0.0016241954 -0.28941298 98 91 38 255
-0.086837135 0.28789428 -0.46114039 66 69 40 255
-0.017684765 0.00064318022 -0.29340518 100 94 44 255
-0.015979622 -0.0020363019 -0.2936461 100 91 39 255
-0.017627627 0.00062163314 -0.29696208 101 93 41 255
-0.014857606 -0.0039743618 -0.294635 99 92 37 255
-0.013421168 -0.004281132 -0.29693213 97 92 41 255
-0.01710473 0.0016147657 -0.30315575 100 93 42 255
-0.016162939 -0.0013808445 -0.30424088 99 93 39 255
-0.017268267 -0.00059734145 -0.30768493 100 94 41 255
-0.0063491482 -0.007587357 -0.30530873 97 90 43 255
-0.085215405 0.27863392 -0.47427368 102 105 67 255
-0.079043441 0.27279189 -0.47429234 107 109 73 255
-0.015695015 -0.0017962293 -0.3093062 100 92 38 255
-0.0060229693 -0.0078151654 -0.30843335 98 92 43 255
-0.084009558 0.27704477 -0.4776175 99 104 61 255
-0.01822968 0.002839522 -0.31394726 103 97 49 255
-0.017546721 0.0020031049 -0.31563529 104 96 47 255
-0.01541378 -0.0012324736 -0.31467655 102 94 42 255
-0.008406207 -0.0073049949 -0.31158596 95 92 41 255
-0.0059313122 -0.0074179457 -0.31384775 100 94 44 255
-0.08220502 0.27105537 -0.48050821 102 109 66 255
-0.0061376169 -0.0070514367 -0.316392 99 94 44 255
-0.018120393 0.0044112667 -0.3221347 106 100 45 255
-0.017728664 0.0013557984 -0.3199718 102 96 45 255
-0.0028709285 -0.011466173 -0.3222627 90 87 46 255
-0.017776422 0.00041772565 -0.32325363 102 99 44 255
-0.007707864 -0.0074589686 -0.3225269 97 93 42 255
-0.0046849363 -0.0071473257 -0.32277161 100 95 40 255
-0.002183577 -0.012842907 -0.32539925 90 88 41 255
-0.0024287887 -0.0081502628 -0.3300916 97 94 43 255
-0.077140048 0.2424939 -0.47727084 95 94 64 255
-0.0043322649 -0.0083198678 -0.33653626 94 87 46 255
-0.074214101 0.23736785 -0.48306614 85 84 47 255
-0.0035991501 -0.0073240236 -0.34111226 96 89 45 255
-0.01732788 0.0012260391 -0.34297788 101 94 39 255
-0.0076538417 -0.0069073127 -0.33885199 98 91 43 255
-0.075060681 0.24048361 -0.4927842 80 86 48 255
-0.071778275 0.23393998 -0.49024969 89 89 51 255
-0.0069537051 -0.0059673176 -0.34610599 96 89 41 255
-0.0041284114 -0.0054014311 -0.35161832 100 92 41 255
-0.0097429529 -0.0062164054 -0.35110003 99 93 42 255
-0.0077655409 -0.0059662298 -0.3514719 99 92 44 255
-0.0041503012 -0.0070248977 -0.35291094 92 88 41 255
-0.0019584186 -0.0060796575 -0.36057106 98 94 42 255
-0.009602448 -0.0059583322 -0.35894156 93 92 40 255
-0.0016148854 -0.0059208856 -0.36287588 97 94 42 255
-0.0014810059 -0.006399049 -0.36711872 99 96 46 255
-0.073434733 0.22862568 -0.54510087 79 71 40 255
-0.054987244 0.21427645 -0.5457688 86 92 55 255
-0.0530563 0.21441698 -0.54513544 94 96 56 255
-0.055330552 0.21356128 -0.54799199 92 97 56 255
-0.052099369 0.21152964 -0.54778618 104 105 66 255
-0.055517182 0.21197647 -0.54971164 92 96 55 255
-0.046991065 0.20678435 -0.54986972 125 124 83 255
-0.045522951 0.2045625 -0.55092514 117 115 77 255
-0.018260609 0.0031057759 -0.41429192 100 94 47 255
-0.049824178 0.20817113 -0.55123729 110 112 74 255
-0.048942633 0.2053721 -0.55301297 105 111 67 255
-0.047599837 0.20314199 -0.55250251 127 129 93 255
-0.012632482 -0.00098520378 -0.42409706 92 90 42 255
-0.052947432 0.20158248 -0.56474072 89 95 51 255
-0.048632532 0.20160012 -0.56129056 100 110 75 255
-0.046624526 0.20021565 -0.56153613 103 106 66 255
-0.014908817 0.00010569533 -0.42137155 99 92 40 255
-0.013573401 -0.0012882189 -0.42133242 94 87 39 255
-0.048943311 0.20129429 -0.56042331 122 119 81 255
-0.046976313 0.1961852 -0.55614495 122 121 84 255
-0.046336479 0.20033555 -0.5598405 127 127 93 255
-0.012296915 -0.0021343515 -0.42361358 99 90 41 255
-0.012702255 -0.0020355568 -0.4270454 95 90 42 255
-0.049154863 0.20033884 -0.5610345 112 111 73 255
-0.047678232 0.19988964 -0.55937558 121 118 85 255
-0.048998743 0.19953088 -0.56409544 104 111 70 255
-0.056689277 0.19711536 -0.56948709 80 82 42 255
-0.049733125 0.19745892 -0.56658715 109 108 71 255
-0.048115276 0.19703305 -0.56763029 99 106 68 255
-0.045410767 0.19474696 -0.56177694 123 125 89 255
-0.025305891 0.18797158 -0.56934744 114 111 78 255
-0.048452705 0.19497819 -0.5660823 117 117 79 255
-0.04668995 0.19153947 -0.56757528 107 113 69 255
-0.047970593 0.19188787 -0.57474118 86 90 45 255
-0.019661507 0.1816406 -0.57464528 96 93 66 255
-0.011983091 -0.00019766251 -0.44346392 96 96 44 255
-0.047453903 0.19383879 -0.57219148 102 108 63 255
-0.044176124 0.18822448 -0.57867485 93 105 55 255
-0.041135818 0.18782845 -0.57759464 101 107 61 255
-0.033767775 0.18424764 -0.57782054 104 107 66 255
-0.013733665 0.17924899 -0.57899916 83 81 62 255
-0.047733471 0.19130586 -0.57469869 88 92 54 255
-0.046684474 0.18907183 -0.57653779 96 103 58 255
-0.031984419 0.1826231 -0.58013695 99 105 55 255
-0.049340978 0.19103101 -0.57702619 98 102 61 255
-0.029224375 0.17994183 -0.58093888 105 109 70 255
-0.045995452 0.18713227 -0.57974839 100 103 59 255
-0.043476582 0.18532009 -0.58112341 106 105 67 255
-0.043203749 0.18599552 -0.57996958 102 109 66 255
-0.03997935 0.18385674 -0.58378428 95 106 72 255
-0.036025532 0.18148372 -0.5843417 101 105 66 255
-0.018444968 0.17584532 -0.58384007 105 104 74 255
-0.05039835 0.18886364 -0.58050817 87 93 53 255
-0.047885977 0.18715335 -0.5819152 100 107 70 255
-0.04179275 0.18407598 -0.58327812 99 105 63 255
-0.034559757 0.18158516 -0.58274299 99 105 62 255
-0.033714429 0.17972746 -0.58443242 89 95 51 255
-0.029801672 0.17911649 -0.58407557 99 102 56 255
-0.028935974 0.17775129 -0.58545023 88 92 49 255
-0.048810363 0.18597357 -0.58322901 90 92 51 255
-0.013318261 -0.0019550906 -0.45528746 93 87 37 255
-0.045563236 0.18331285 -0.58539796 97 103 60 255
-0.041872837 0.18160373 -0.58676082 100 103 61 255
-0.038568795 0.18169267 -0.58483177 107 110 70 255
-0.038587347 0.18018249 -0.58708709 101 106 66 255
-0.050514169 0.18442141 -0.58642358 90 96 59 255
-0.013830785 -0.0033674375 -0.45980513 96 89 39 255
-0.045224681 0.18093368 -0.58900493 97 99 63 255
-0.042742781 0.17450461 -0.58414668 100 105 67 255
-0.01417879 -0.0024294541 -0.46163076 92 87 34 255
-0.042903304 0.17350382 -0.58665925 107 108 70 255
-0.015986977 -0.00054436782 -0.46578833 93 90 39 255
-0.041692473 0.17164612 -0.58961004 104 108 70 255
-0.043012552 0.17041716 -0.59570724 102 107 68 255
-0.044800036 0.17201655 -0.59741563 103 106 66 255
-0.017620269 0.0069665774 -0.48677683 103 97 46 255
-0.044285923 0.16816489 -0.60549325 90 92 52 255
-0.011124557 -0.012083633 -0.48407301 93 84 41 255
-0.036211409 0.16211623 -0.6100527 101 101 63 255
-0.055128165 0.16621073 -0.60805655 110 116 72 255
0.082014993 -0.17571756 -0.41411904 110 107 86 255
0.083490498 -0.17998073 -0.41162497 106 105 85 255
-0.053404778 0.16529277 -0.61006993 108 114 79 255
-0.042535342 0.16445781 -0.61375779 91 92 48 255
0.055482768 -0.15093638 -0.4206934 130 135 96 255
0.080495238 -0.18119454 -0.40923861 125 125 97 255
0.051064558 -0.15079752 -0.41873822 117 124 90 255
0.081813276 -0.18306136 -0.4091827 124 122 98 255
-0.011790449 -0.0088479649 -0.49941057 89 87 37 255
-0.0098130275 -0.01143506 -0.49914786 84 80 33 255
0.091500662 -0.28097147 -0.34327337 126 123 95 255
0.09034849 -0.29077938 -0.33640736 128 126 93 255
0.048087679 -0.11946349 -0.44838953 103 111 69 255
0.047635786 -0.14419541 -0.42124254 105 113 73 255
0.060055181 -0.068109408 -0.49720639 123 119 79 255
0.057298437 -0.095982566 -0.47148243 117 122 84 255
0.042331398 -0.14896342 -0.42131573 108 112 76 255
0.064090326 -0.25158268 -0.35613453 136 136 102 255
0.064820707 -0.25119951 -0.35581216 132 137 104 255
0.065814972 -0.25427669 -0.35524449 138 146 115 255
0.06392169 -0.071564361 -0.49579132 103 102 79 255
0.040817648 -0.15026148 -0.42281586 112 113 79 255
0.039402731 -0.15702611 -0.42027268 104 112 68 255
0.065785199 -0.25711253 -0.35446838 134 140 105 255
0.065080725 -0.26442724 -0.35192898 132 138 101 255
0.065835766 -0.26555529 -0.34881926 124 131 90 255
-0.015161281 0.15128832 -0.63043243 85 95 51 255
-0.010879999 0.15074831 -0.63161093 99 106 60 255
0.034288779 -0.15439378 -0.42247778 111 119 84 255
0.039582662 -0.16680907 -0.41606095 110 119 84 255
0.047166914 -0.18607685 -0.40399593 116 125 80 255
0.05765976 -0.25283486 -0.35634032 114 120 80 255
0.06615255 -0.2571044 -0.35473537 141 142 111 255
0.067094319 -0.27015185 -0.34792399 126 133 92 255
0.091556087 -0.38922209 -0.2681306 134 135 104 255
-0.016821971 0.0024510338 -0.5198366 101 93 44 255
-0.014213147 -0.0078252237 -0.51316994 97 92 36 255
0.048024014 -0.034001276 -0.52655131 126 119 68 255
0.036029771 -0.15905052 -0.41981956 105 116 81 255
0.063733086 -0.26786172 -0.3511723 113 123 86 255
-0.017485088 0.0042140498 -0.52361304 107 98 50 255
0.041450605 -0.21031435 -0.38691351 113 122 82 255
0.042532787 -0.21511088 -0.38450122 126 130 86 255
0.056534611 -0.25693274 -0.35649183 116 123 82 255
0.032564409 -0.03359358 -0.53286582 144 135 74 255
0.03899239 -0.031598106 -0.53281778 154 142 75 255
0.031884857 -0.16366974 -0.41725224 111 120 89 255
0.046956234 -0.24337709 -0.36828655 118 123 83 255
0.058921613 -0.26658577 -0.35309294 115 125 84 255
0.07348074 -0.28974777 -0.34127098 132 133 101 255
0.04466705 -0.021244241 -0.54113686 115 106 72 255
0.036894724 -0.043685824 -0.52282208 146 141 75 255
0.032626592 -0.05680345 -0.51425278 137 130 65 255
0.034851998 -0.057040319 -0.51365846 140 131 67 255
0.03770303 -0.060835496 -0.5084182 133 134 77 255
0.051364034 -0.24500684 -0.35980576 124 131 96 255
0.046781167 -0.25034213 -0.36150956 122 131 101 255
0.050450817 -0.25745824 -0.35923606 115 124 79 255
0.052667849 -0.26024568 -0.35616139 117 122 84 255
0.056037374 -0.26794258 -0.35384429 118 127 91 255
0.065976717 -0.2714653 -0.34904438 123 130 90 255
0.059881538 -0.27643496 -0.34965655 118 127 84 255
0.062869631 -0.27834255 -0.34885913 117 126 85 255
-0.012752777 0.1442126 -0.64317745 99 114 65 255
0.023206519 -0.048327908 -0.52198178 145 134 78 255
0.030788215 -0.046491906 -0.52292198 146 137 74 255
0.053655215 -0.27188489 -0.35304165 118 128 93 255
0.060129233 -0.27131048 -0.35136393 114 127 85 255
0.065326847 -0.30243704 -0.33660948 118 122 89 255
-0.016676957 0.14348218 -0.64268917 104 115 76 255
0.036679991 -0.028488381 -0.53615886 149 140 72 255
0.026307123 -0.053511813 -0.51774585 143 131 75 255
0.0082612243 -0.15010814 -0.43115398 114 120 86 255
0.022215692 -0.16756022 -0.4178282 115 120 86 255
0.046898946 -0.25222516 -0.36107343 134 134 106 255
0.048691563 -0.25730968 -0.35986391 120 124 91 255
0.04778257 -0.26173928 -0.36143956 138 146 101 255
0.052036487 -0.26989523 -0.35477918 117 122 90 255
0.057146408 -0.27282718 -0.35228249 110 122 80 255
0.056145713 -0.2820645 -0.34903395 120 128 90 255
0.061246604 -0.28315806 -0.3478249 134 139 106 255
-0.027336469 0.14242104 -0.64249915 102 106 63 255
-0.0233759 0.1434373 -0.64105958 103 109 63 255
0.00022708811 0.14122075 -0.65248102 111 113 70 255
0.0052189101 0.14077753 -0.65524298 103 102 76 255
0.025606172 -0.041695029 -0.52934551 144 135 71 255
0.00414983 -0.14693901 -0.43217874 122 122 94 255
0.043828346 -0.2358329 -0.37140962 136 144 118 255
0.038527049 -0.24352281 -0.37120095 115 124 81 255
0.044658497 -0.24467711 -0.36485243 138 142 119 255
0.051141456 -0.27694181 -0.35134074 116 120 81 255
0.059617274 -0.30392084 -0.33928534 133 134 104 255
0.059577435 -0.30600515 -0.33534783 127 128 99 255
0.067685768 -0.31716892 -0.32581785 114 121 88 255
-0.022947336 0.14072183 -0.64397401 101 109 62 255
-0.010774957 0.14185005 -0.64746147 99 110 72 255
-0.0048335548 0.14220726 -0.6497429 108 113 66 255
-0.026383843 -0.13216406 -0.43290377 87 86 72 255
0.0035789255 -0.16310312 -0.42039824 116 115 87 255
0.061503373 -0.31066281 -0.33399138 134 138 113 255
0.079124257 -0.37879771 -0.2861461 118 122 78 255
0.0086642038 0.13752511 -0.65999669 95 95 75 255
-0.0019014739 -0.15149912 -0.42968291 122 130 90 255
-0.00092989765 -0.16589227 -0.41827095 119 118 90 255
0.075213537 -0.36346915 -0.29975918 95 102 63 255
0.077312388 -0.37181595 -0.29423526 84 96 50 255
0.093377963 -0.42045566 -0.26437399 114 113 88 255
-0.023872972 -0.14379254 -0.42912719 142 144 120 255
0.038969412 -0.2706646 -0.35589594 104 117 74 255
0.10592838 -0.44727805 -0.25936648 113 112 93 255
-0.02621668 -0.1430485 -0.42893034 90 90 72 255
-0.024631456 -0.14427964 -0.42870551 110 112 90 255
-0.023723405 -0.14580458 -0.42906895 152 152 122 255
-0.011966334 -0.16612053 -0.4208515 134 141 104 255
-0.023398386 0.13717812 -0.64963216 92 100 53 255
-0.019497359 0.13678491 -0.65257412 96 105 66 255
0.005611917 0.13094524 -0.66413701 116 121 85 255
-0.021183586 -0.15068656 -0.42894897 140 147 122 255
-0.017065372 -0.15944538 -0.42418939 130 134 103 255
0.016739713 -0.24210851 -0.37342635 119 127 95 255
-0.027018091 0.13672122 -0.652897 92 100 55 255
-0.017053826 0.13437039 -0.65650803 95 102 56 255
-0.02031732 -0.16054265 -0.4261384 136 140 114 255
-0.01781863 -0.16513613 -0.42125365 117 125 102 255
-0.012546917 -0.17576715 -0.41418183 93 105 65 255
0.015125224 -0.24657226 -0.37019739 122 128 100 255
-0.064461693 0.10990122 -0.61569941 107 110 79 255
-0.021504851 0.13493991 -0.65654451 102 107 65 255
-0.012198718 0.13174459 -0.66167945 113 117 66 255
0.0014254134 0.12821653 -0.66491872 117 122 77 255
-0.017357996 -0.17109269 -0.41868699 90 97 65 255
0.10418093 -0.45011631 -0.25966269 105 103 76 255
-0.018998651 0.13386527 -0.65781361 98 100 57 255
-0.019065911 0.13277203 -0.66042626 106 113 72 255
-0.0039783847 0.12761 -0.66519797 107 111 64 255
-0.021313269 -0.1686779 -0.42145431 96 103 77 255
-0.019529568 -0.17454155 -0.4165749 89 89 67 255
0.10361916 -0.45781401 -0.2561782 111 112 81 255
-0.06709975 0.11772117 -0.62824434 55 58 30 255
-0.014303999 0.13077271 -0.66121155 101 105 60 255
0.010586927 -0.27298459 -0.3583703 122 126 96 255
0.093363926 -0.44745243 -0.26134616 130 133 102 255
-0.014300874 0.13589907 -0.65597957 104 114 66 255
-0.014581477 0.13406295 -0.65746886 108 112 70 255
-0.0097768139 0.12959006 -0.66405338 103 108 63 255
0.0038359296 0.12186134 -0.67074174 111 117 75 255
-0.0067833941 -0.26072413 -0.35966483 120 122 90 255
0.051082134 -0.34243846 -0.32592997 155 157 133 255
-0.0608216 0.10701966 -0.62845832 99 100 67 255
-0.018220788 0.12884128 -0.66537243 108 116 66 255
-0.013341824 0.1267992 -0.66458744 100 102 57 255
-0.0066427235 0.11970574 -0.67286289 91 91 57 255
0.0075152945 0.12004024 -0.67321676 119 124 86 255
-0.010535672 -0.25264648 -0.36352688 111 106 81 255
0.076517448 -0.42533019 -0.27256209 107 105 68 255
-0.067127831 0.11632317 -0.63279933 71 69 48 255
-0.022732018 0.13017425 -0.66355121 102 109 66 255
-0.012084475 0.12564957 -0.66675359 102 105 59 255
0.0056026634 0.11816457 -0.674528 123 131 87 255
-0.0041218381 0.11967456 -0.67269021 116 119 75 255
-0.0046090279 0.11794585 -0.67524713 117 118 84 255
-0.012319705 -0.0013474808 -0.57411337 107 97 46 255
-0.010432696 0.12324929 -0.66931361 101 99 52 255
-0.0022530425 0.11704555 -0.6768567 112 118 73 255
7.7383593e-05 0.11599684 -0.6775319 112 120 71 255
0.011609098 0.1129142 -0.68167788 116 116 83 255
0.01432346 0.11055812 -0.68240374 95 96 61 255
0.016378419 0.10933083 -0.68214029 88 89 62 255
-0.014246216 0.12120011 -0.6723538 107 112 63 255
-0.011241024 0.11942339 -0.67286211 108 115 67 255
-0.0092672091 0.11597002 -0.67748874 92 97 57 255
-0.0048405956 0.11529246 -0.67851037 97 102 59 255
0.012596501 0.11045831 -0.68257624 104 107 74 255
0.051238522 -0.36956146 -0.30497468 125 129 100 255
-0.014545796 0.11783028 -0.67830837 108 111 76 255
0.013309775 0.10859999 -0.68482834 93 93 59 255
0.01694045 0.10736412 -0.68473607 80 84 52 255
0.062228292 -0.43855587 -0.27708238 142 142 118 255
-0.015027644 0.11910057 -0.67357486 101 101 60 255
0.0037545469 0.11182177 -0.68289661 112 115 79 255
0.011010638 0.10812241 -0.68501502 101 103 66 255
0.014247349 0.10530868 -0.68417597 94 95 57 255
-0.012604428 0.12005135 -0.68441123 94 97 57 255
-0.010926193 0.11711395 -0.67567873 99 101 64 255
0.011115847 0.10660136 -0.68704921 92 93 57 255
0.084714711 -0.48418763 -0.25469923 128 129 96 255
-0.014052672 0.11586681 -0.68432456 101 107 62 255
-0.011863755 0.11332422 -0.68224722 93 96 52 255
-0.018777961 0.11831003 -0.68304068 96 103 62 255
-0.0058326293 0.1114594 -0.68636328 97 99 41 255
0.01104136 0.10500738 -0.69138986 102 108 74 255
-0.011673054 0.11162552 -0.68944186 94 94 50 255
0.0058382284 0.10633048 -0.69293946 89 95 57 255
0.0064474847 0.10522026 -0.69538432 91 93 49 255
0.010854216 0.10432756 -0.69637471 85 94 53 255
-0.012211246 0.11150411 -0.69049549 99 104 58 255
-0.0093979295 0.11022159 -0.69419271 93 95 52 255
0.00092482381 0.10594773 -0.69606876 84 87 49 255
0.080437288 -0.4962036 -0.25285396 129 129 96 255
-0.01519821 0.11179617 -0.69094682 94 98 58 255
-0.014953477 0.11146322 -0.69505996 103 105 66 255
-0.011076136 0.1103746 -0.69415706 110 120 69 255
-0.0051495489 0.10783243 -0.69604069 91 93 54 255
-0.0014312398 0.10634926 -0.69704765 85 92 51 255
0.0022587907 0.10470152 -0.69947046 88 90 50 255
0.0066737775 0.10362548 -0.70053178 84 93 48 255
-0.0041140709 -0.017152635 -0.59622431 81 74 41 255
0.083796732 -0.50773132 -0.2493059 123 130 88 255
-0.017423337 0.11050177 -0.69687742 90 95 55 255
-0.012322193 0.10853851 -0.69864988 93 96 51 255
-0.0037677418 0.10627621 -0.69989449 85 90 48 255
0.043862104 -0.46723136 -0.25595236 150 153 117 255
-0.014089813 0.10925865 -0.69939423 84 86 52 255
-0.004640745 0.10580322 -0.70061094 93 95 57 255
-0.0070827212 0.10607693 -0.70243156 91 96 55 255
-0.056364067 0.081061512 -0.65854341 104 104 65 255
-0.015101017 0.10680026 -0.70224124 88 90 50 255
-0.011393586 0.10494354 -0.70463306 88 90 46 255
-0.013474809 0.10381302 -0.70542306 95 99 55 255
-0.0093664471 0.10279804 -0.70716506 96 100 64 255
-0.0084259976 0.10217628 -0.70946401 88 92 50 255
-0.014807129 0.10230815 -0.70917553 108 103 65 255
-0.01179892 0.10114843 -0.70947927 95 95 57 255
-0.01072325 0.10042709 -0.71106547 88 90 46 255
0.0051516648 0.096732527 -0.71621364 92 95 57 255
0.061022237 -0.51963043 -0.24685957 111 117 88 255
-0.057065777 0.079696447 -0.6682629 84 86 53 255
-0.0083873849 0.099711567 -0.713346 94 99 54 255
-0.0063400958 0.099127561 -0.71412009 96 102 58 255
-0.0033887979 0.098325044 -0.71590525 92 95 53 255
0.0070443619 0.096397907 -0.71848881 74 80 40 255
-0.055925317 0.076542079 -0.67042512 93 93 60 255
-0.01253145 0.099677175 -0.7122851 94 97 53 255
-0.0029183906 0.097611576 -0.71522194 90 94 53 255
0.0010040607 0.096262276 -0.71720082 85 89 49 255
0.0081527177 0.094418615 -0.72183675 90 91 51 255
0.012572234 0.094293565 -0.72107512 89 87 48 255
0.016753526 0.094324857 -0.72185451 90 92 49 255
-0.055563465 0.07501483 -0.67172921 92 93 59 255
-0.013095791 0.099085689 -0.71420509 90 96 50 255
-0.0099674519 0.09830299 -0.7161954 96 97 51 255
0.0033726748 0.096206307 -0.71878403 92 90 47 255
0.0029587466 0.09519431 -0.72321886 96 97 56 255
0.007862499 0.094563872 -0.7232886 87 87 42 255
0.011339476 0.094191343 -0.72260457 92 96 59 255
-0.057688087 0.07676053 -0.67528039 89 89 61 255
-0.00060747378 0.096722215 -0.72304815 96 96 55 255
-0.01316254 0.096945614 -0.72027224 97 95 53 255
0.0021746214 0.095099837 -0.72463673 98 98 57 255
0.0083023701 0.093501389 -0.72698027 97 99 60 255
0.022316588 0.089018047 -0.73398781 70 74 51 255
-0.0096716452 0.09622997 -0.72231001 92 91 53 255
-0.00031119026 0.094839007 -0.72479296 89 85 49 255
0.005398808 0.092965245 -0.7281639 99 99 62 255
0.007919142 0.091907382 -0.7305907 82 87 46 255
-0.014551932 0.094462752 -0.72418654 97 99 57 255
-0.0077957194 0.094699949 -0.72499508 93 97 49 255
-0.0030081365 0.092523098 -0.72777408 91 93 50 255
0.0031599309 0.092191041 -0.73012072 105 104 64 255
-0.017557489 0.094042748 -0.72445667 82 82 47 255
-0.01298531 0.093562841 -0.72704571 97 97 58 255
-0.00025998242 0.091568053 -0.73048347 107 106 68 255
-0.0087899957 0.092943281 -0.72912031 95 98 55 255
-0.015930573 0.092193782 -0.72821963 91 92 52 255
-0.0098002944 0.091050267 -0.72798604 106 103 68 255
-0.0055343341 0.089820057 -0.731332 101 104 60 255
-0.0037375148 0.089616209 -0.73124546 103 106 54 255
-0.00035632215 0.089789867 -0.73292542 85 85 50 255
-2.5572255e-05 0.088711023 -0.73572642 100 104 61 255
-0.011339081 0.090074509 -0.73254019 97 98 57 255
-0.0040855836 0.087803155 -0.73633683 103 101 62 255
0.00019552372 0.087749153 -0.73759669 105 106 67 255
0.0033892449 0.086379945 -0.74079138 104 105 66 255
0.0073704142 0.085772842 -0.74138194 103 105 67 255
-0.017959731 0.089014024 -0.73324138 87 87 51 255
-0.0099279042 0.088029176 -0.73796302 100 103 60 255
-0.0059882496 0.088327765 -0.73718303 97 100 55 255
0.010369075 0.084197491 -0.74419349 105 105 62 255
0.017559437 0.082883477 -0.74557751 101 103 60 255
0.024561254 0.084190369 -0.74665004 107 111 72 255
-0.015592476 0.086413413 -0.7365061 101 100 61 255
-0.0057487395 0.086709976 -0.7408101 98 101 59 255
0.00031613 0.085184395 -0.74243569 94 101 60 255
-0.0028239507 0.084231913 -0.74426657 96 104 61 255
0.0079002548 0.083391666 -0.74475485 102 106 63 255
0.020229632 0.081359178 -0.74945241 100 98 68 255
-0.018763745 0.08644861 -0.73709816 93 98 57 255
-0.014886728 0.08600986 -0.74084121 91 93 59 255
-0.0082291719 0.085307211 -0.7431885 104 105 66 255
-0.019447813 0.08492291 -0.73972648 89 92 55 255
-0.0018946584 0.085792214 -0.74133873 94 97 57 255
-0.0021034721 0.083058864 -0.74561447 102 105 59 255
-0.0146315 0.083676696 -0.7439248 94 97 58 255
-0.0076122824 0.082829893 -0.74772066 105 108 69 255
-0.015968284 0.083439469 -0.74404085 95 96 64 255
-0.010477735 0.082414687 -0.74747401 98 99 65 255
-0.0072864201 0.080868483 -0.75075299 97 102 62 255
-0.018092243 0.0816378 -0.74516219 91 92 57 255
-0.014614435 0.081064522 -0.74808115 96 99 61 255
-0.0077538211 0.080088615 -0.75079697 100 104 63 255
0.022387089 0.076534301 -0.7586031 99 105 58 255
-0.022550179 0.080307275 -0.74497485 79 84 49 255
-0.011551159 0.079299778 -0.75165379 101 101 64 255
-0.0029569473 0.078560024 -0.75352758 103 106 64 255
-0.0030007605 0.077673405 -0.75455493 94 94 64 255
0.0044242684 0.077176929 -0.75528371 94 98 55 255
-0.020223832 0.078864217 -0.74796689 85 90 54 255
-0.0020299312 0.075515062 -0.75717193 95 99 58 255
0.015917277 0.073650718 -0.76351565 96 100 57 255
-0.020461163 0.078528792 -0.74906856 89 93 58 255
-0.016559606 0.077588439 -0.75207978 92 93 56 255
-0.0081031527 0.077610821 -0.75432807 100 102 62 255
-0.0048805457 0.076241285 -0.75626105 98 99 59 255
0.0046235565 0.074852794 -0.75780398 93 96 55 255
-0.0030736197 0.073982894 -0.76066291 97 96 60 255
0.0079345461 0.074564844 -0.75756639 94 100 56 255
0.0098592211 0.073120505 -0.76086825 93 99 55 255
0.013691993 0.073144913 -0.76362425 91 95 51 255
-0.017303715 0.075147778 -0.75564575 86 88 51 255
-0.010629447 0.074535638 -0.75766146 97 99 60 255
-0.0053119529 0.074717879 -0.75947219 97 99 59 255
0.010672858 0.072204709 -0.76358688 93 101 51 255
-0.015296308 0.072936386 -0.76003206 86 89 50 255
0.010325721 0.070639312 -0.76702899 91 97 53 255
-0.018913617 0.071948141 -0.75869268 85 86 46 255
-0.013155585 0.06952098 -0.76278281 82 89 53 255
-0.013926914 0.068682969 -0.76548177 88 91 54 255
0.014362348 0.06681937 -0.77966315 91 92 52 255
0.0060715917 0.065907836 -0.78081661 97 107 58 255
0.019581465 0.06418559 -0.7890467 92 92 54 255
-0.0056992266 -0.0098543745 -0.70975417 83 73 30 255
-0.011058396 0.065838814 -0.7700038 87 90 53 255
0.027127268 0.064089507 -0.7965228 94 99 57 255
-0.0049371142 -0.0095859449 -0.71563691 82 75 31 255
-0.014703946 0.063193202 -0.77386314 79 81 45 255
-0.0075952243 0.064058125 -0.77646095 89 91 55 255
0.00074135698 0.064380437 -0.78068334 94 95 52 255
0.00010398589 0.062347203 -0.78490573 96 102 58 255
0.010830333 0.061425269 -0.79243153 102 108 64 255
-0.004446486 -0.0092039686 -0.720496 82 72 32 255
-0.015213372 0.060281754 -0.77812988 80 80 46 255
-0.0096236821 0.061870366 -0.78074032 90 90 55 255
-0.0040843878 0.061234891 -0.78292614 93 94 54 255
0.0034817513 0.061130673 -0.78965467 104 105 67 255
0.014148923 0.061115921 -0.79713762 100 104 55 255
0.026881693 0.061522514 -0.80329216 94 95 48 255
-0.0034757312 -0.010226784 -0.72498268 82 73 28 255
-0.0073513556 0.061956257 -0.78099161 88 88 54 255
-0.0071826857 0.059604257 -0.78578395 91 94 57 255
0.0006944593 0.059853882 -0.78887993 98 99 56 255
-0.011465812 0.059970051 -0.78242725 83 85 47 255
0.0029525366 0.058336288 -0.79596442 91 100 50 255
0.0065715294 0.058512151 -0.79781884 103 109 65 255
-0.013006026 0.056657672 -0.78564876 83 80 49 255
-0.0080016162 0.058055907 -0.78943306 85 86 44 255
-0.00059087761 0.056479573 -0.79514831 100 101 63 255
-0.0035803746 0.055569828 -0.79478949 100 98 60 255
0.0065174345 0.056083262 -0.80264574 105 101 56 255
0.0092479754 0.056429446 -0.80322748 101 99 56 255
-0.0093598124 0.057636619 -0.78674835 81 80 44 255
-0.01064227 0.057206988 -0.79198569 84 83 50 255
-0.0068924893 0.055898726 -0.79434848 96 95 57 255
0.010511464 0.055378109 -0.80617315 98 103 54 255
0.016476138 0.053424925 -0.80911106 105 101 53 255
0.020081373 0.054581732 -0.80941552 105 104 49 255
-0.0039679762 0.054164618 -0.79955536 95 95 57 255
0.001036806 0.054415792 -0.80115914 104 99 63 255
0.0032137167 0.055030793 -0.80245286 105 100 60 255
0.020900464 0.052716941 -0.81351882 104 103 50 255
0.023810105 0.053624809 -0.81475097 100 100 51 255
-0.0070786532 0.055497557 -0.79547626 93 90 55 255
0.0065603461 0.052437395 -0.80879742 100 98 50 255
0.010407941 0.053057253 -0.80842406 97 94 49 255
0.013304515 0.052138895 -0.81236464 104 102 52 255
0.024604408 0.051806867 -0.81853861 104 103 49 255
-0.0051666405 -0.010468958 -0.74387044 77 73 29 255
-0.012253275 0.054129481 -0.79593116 80 82 49 255
-0.0040335786 0.053708017 -0.79987139 92 94 58 255
-0.0053914767 0.053328842 -0.80179268 90 91 52 255
-0.0012955051 0.051309824 -0.80501419 86 89 44 255
0.0086540636 0.052155554 -0.81061536 98 96 50 255
0.016316259 0.051490515 -0.81527716 102 102 50 255
-0.010116702 -0.0010413514 -0.75190145 79 75 29 255
-0.0074996892 0.052045047 -0.79889846 86 88 51 255
0.0083522741 0.051055163 -0.8136602 96 93 47 255
-0.0071301293 0.054628283 -0.79836279 82 84 53 255
-0.008556379 0.049562722 -0.80221868 83 85 45 255
0.0049479771 0.052084178 -0.81185991 87 94 45 255
0.01241287 0.049958378 -0.81838888 92 95 42 255
-0.014520625 0.04980883 -0.79500431 77 77 41 255
-0.0043695737 0.048447669 -0.80758291 86 84 40 255
0.001543982 0.048686445 -0.81388277 84 86 41 255
0.0059517156 0.049537331 -0.81542903 101 96 48 255
-0.010073019 0.048145235 -0.80656344 80 81 43 255
0.0083212573 0.048742622 -0.81953293 92 86 40 255
-0.00042117201 0.047564507 -0.81483418 74 74 32 255
0.0050832536 0.047876745 -0.81898946 95 95 43 255
0.0089201797 0.047538966 -0.82220036 101 95 45 255
0.013596272 0.047596395 -0.82304823 101 98 45 255
0.0027604643 0.046315789 -0.82086623 93 90 44 255
0.0074677747 0.046992421 -0.82496047 96 96 46 255
-0.013250982 0.046327919 -0.80124444 80 79 47 255
-0.0040467437 0.044840455 -0.8169499 75 75 33 255
-0.010971198 0.044375926 -0.81138933 81 82 47 255
